10247409.8274 851864.143928 3.0 0.988320770188 -0.152387844711 -8.35190913676e-24
10247409.8274 851864.143928 9.0 0.988320770188 -0.152387844711 -8.35190913676e-24
10247409.8274 851864.143928 14.0 0.988320770188 -0.152387844711 -8.35190913676e-24
10247408.9131 851858.214003 3.0 0.988320770188 -0.152387844711 -8.35190913676e-24
10247408.9131 851858.214003 9.0 0.988320770188 -0.152387844711 -8.35190913676e-24
10247408.9131 851858.214003 14.0 0.988320770188 -0.152387844711 -8.35190913676e-24
10247408.1873 851853.506546 3.0 0.988320770188 -0.152387844711 -8.35190913676e-24
10247408.1873 851853.506546 9.0 0.988320770188 -0.152387844711 -8.35190913676e-24
10247408.1873 851853.506546 14.0 0.988320770188 -0.152387844711 -8.35190913676e-24
10247404.9315 851852.134603 13.0 -0.126315999989 -0.99199005446 -1.19098176356e-18
10247404.9315 851852.134603 7.0 -0.126315999989 -0.99199005446 -1.19098176356e-18
10247404.9315 851852.134603 2.0 -0.126315999989 -0.99199005446 -1.19098176356e-18
10247401.2938 851852.597813 13.0 -0.126315999989 -0.99199005446 -1.19098176356e-18
10247401.2938 851852.597813 7.0 -0.126315999989 -0.99199005446 -1.19098176356e-18
10247401.2938 851852.597813 2.0 -0.126315999989 -0.99199005446 -1.19098176356e-18
10247399.0091 851852.940397 13.0 -0.15719170237 -0.987568108389 -9.85412689665e-19
10247399.0091 851852.940397 7.0 -0.15719170237 -0.987568108389 -9.85412689665e-19
10247399.0091 851852.940397 2.0 -0.15719170237 -0.987568108389 -9.85412689665e-19
10247396.6013 851854.854106 3.0 -0.904551401647 -0.426364587858 -6.02305820795e-19
10247396.6013 851854.854106 9.0 -0.904551401647 -0.426364587858 -6.02305820795e-19
10247396.6013 851854.854106 14.0 -0.904551401647 -0.426364587858 -6.02305820795e-19
10247395.9514 851858.517675 3.0 -0.997955614962 0.0639108016377 1.77158480023e-19
10247395.9514 851858.517675 9.0 -0.997955614962 0.0639108016377 1.77158480023e-19
10247395.9514 851858.517675 14.0 -0.997955614962 0.0639108016377 1.77158480023e-19
10247394.0586 851862.603308 3.0 -0.71738067338 -0.696681397384 1.87847600398e-18
10247394.0586 851862.603308 9.0 -0.71738067338 -0.696681397384 1.87847600398e-18
10247394.0586 851862.603308 14.0 -0.71738067338 -0.696681397384 1.87847600398e-18
10247387.0282 851865.817829 13.0 -0.220517753252 -0.975382960944 -0.0
10247387.0282 851865.817829 7.0 -0.220517753252 -0.975382960944 -0.0
10247387.0282 851865.817829 2.0 -0.220517753252 -0.975382960944 -0.0
10247390.9968 851864.920595 13.0 -0.220517753252 -0.975382960944 -0.0
10247390.9968 851864.920595 7.0 -0.220517753252 -0.975382960944 -0.0
10247390.9968 851864.920595 2.0 -0.220517753252 -0.975382960944 -0.0
10247383.2327 851864.53809 3.0 0.911117023466 -0.412147752087 -6.23677125195e-19
10247383.2327 851864.53809 9.0 0.911117023466 -0.412147752087 -6.23677125195e-19
10247383.2327 851864.53809 14.0 0.911117023466 -0.412147752087 -6.23677125195e-19
10247379.4421 851863.360279 13.0 -0.258217872734 -0.966086709463 8.09024174068e-24
10247379.4421 851863.360279 7.0 -0.258217872734 -0.966086709463 8.09024174068e-24
10247379.4421 851863.360279 2.0 -0.258217872734 -0.966086709463 8.09024174068e-24
10247374.8005 851864.600896 13.0 -0.258217872734 -0.966086709463 8.09024174068e-24
10247374.8005 851864.600896 7.0 -0.258217872734 -0.966086709463 8.09024174068e-24
10247374.8005 851864.600896 2.0 -0.258217872734 -0.966086709463 8.09024174068e-24
10247371.0958 851871.576701 3.0 -0.957689497834 -0.287803449839 2.47787149993e-18
10247371.0958 851871.576701 9.0 -0.957689497834 -0.287803449839 2.47787149993e-18
10247371.0958 851871.576701 14.0 -0.957689497834 -0.287803449839 2.47787149993e-18
10247372.5047 851866.888638 3.0 -0.957689497834 -0.287803449839 2.47787149993e-18
10247372.5047 851866.888638 9.0 -0.957689497834 -0.287803449839 2.47787149993e-18
10247372.5047 851866.888638 14.0 -0.957689497834 -0.287803449839 2.47787149993e-18
10247375.5972 851901.291156 3.0 -0.980596932082 0.196034835656 -7.12704285424e-18
10247375.5972 851901.291156 9.0 -0.980596932082 0.196034835656 -7.12704285424e-18
10247375.5972 851901.291156 14.0 -0.980596932082 0.196034835656 -7.12704285424e-18
10247374.421 851895.407574 3.0 -0.980596932082 0.196034835656 -7.12704285424e-18
10247374.421 851895.407574 9.0 -0.980596932082 0.196034835656 -7.12704285424e-18
10247374.421 851895.407574 14.0 -0.980596932082 0.196034835656 -7.12704285424e-18
10247373.2448 851889.523992 3.0 -0.980596932082 0.196034835656 -7.12704285424e-18
10247373.2448 851889.523992 9.0 -0.980596932082 0.196034835656 -7.12704285424e-18
10247373.2448 851889.523992 14.0 -0.980596932082 0.196034835656 -7.12704285424e-18
10247372.0686 851883.640411 3.0 -0.980596932082 0.196034835656 -7.12704285424e-18
10247372.0686 851883.640411 9.0 -0.980596932082 0.196034835656 -7.12704285424e-18
10247372.0686 851883.640411 14.0 -0.980596932082 0.196034835656 -7.12704285424e-18
10247370.8924 851877.756829 3.0 -0.980596932082 0.196034835656 -7.12704285424e-18
10247370.8924 851877.756829 9.0 -0.980596932082 0.196034835656 -7.12704285424e-18
10247370.8924 851877.756829 14.0 -0.980596932082 0.196034835656 -7.12704285424e-18
10247370.2682 851874.634823 3.0 -0.980596932082 0.196034835656 -7.12704285424e-18
10247370.2682 851874.634823 9.0 -0.980596932082 0.196034835656 -7.12704285424e-18
10247370.2682 851874.634823 14.0 -0.980596932082 0.196034835656 -7.12704285424e-18
10247380.2606 851907.101164 13.0 -0.575096616307 0.818085497923 -0.0
10247380.2606 851907.101164 7.0 -0.575096616307 0.818085497923 -0.0
10247380.2606 851907.101164 2.0 -0.575096616307 0.818085497923 -0.0
10247376.9978 851904.807521 13.0 -0.575096616307 0.818085497923 -0.0
10247376.9978 851904.807521 7.0 -0.575096616307 0.818085497923 -0.0
10247376.9978 851904.807521 2.0 -0.575096616307 0.818085497923 -0.0
10247412.7452 851902.726221 13.0 0.199169937921 0.979964966633 -4.76474030644e-23
10247412.7452 851902.726221 7.0 0.199169937921 0.979964966633 -4.76474030644e-23
10247412.7452 851902.726221 2.0 0.199169937921 0.979964966633 -4.76474030644e-23
10247406.8654 851903.921241 13.0 0.199169937921 0.979964966633 -4.76474030644e-23
10247406.8654 851903.921241 7.0 0.199169937921 0.979964966633 -4.76474030644e-23
10247406.8654 851903.921241 2.0 0.199169937921 0.979964966633 -4.76474030644e-23
10247400.9856 851905.116261 13.0 0.199169937921 0.979964966633 -4.76474030644e-23
10247400.9856 851905.116261 7.0 0.199169937921 0.979964966633 -4.76474030644e-23
10247400.9856 851905.116261 2.0 0.199169937921 0.979964966633 -4.76474030644e-23
10247395.1058 851906.31128 13.0 0.199169937921 0.979964966633 -4.76474030644e-23
10247395.1058 851906.31128 7.0 0.199169937921 0.979964966633 -4.76474030644e-23
10247395.1058 851906.31128 2.0 0.199169937921 0.979964966633 -4.76474030644e-23
10247389.226 851907.5063 13.0 0.199169937921 0.979964966633 -4.76474030644e-23
10247389.226 851907.5063 7.0 0.199169937921 0.979964966633 -4.76474030644e-23
10247389.226 851907.5063 2.0 0.199169937921 0.979964966633 -4.76474030644e-23
10247384.5044 851908.465941 13.0 0.199169937921 0.979964966633 -4.76474030644e-23
10247384.5044 851908.465941 7.0 0.199169937921 0.979964966633 -4.76474030644e-23
10247384.5044 851908.465941 2.0 0.199169937921 0.979964966633 -4.76474030644e-23
10247412.4176 851880.887158 3.0 0.9883073407 -0.152474917011 0.0
10247412.4176 851880.887158 9.0 0.9883073407 -0.152474917011 0.0
10247412.4176 851880.887158 14.0 0.9883073407 -0.152474917011 0.0
10247413.3325 851886.817002 3.0 0.9883073407 -0.152474917011 0.0
10247413.3325 851886.817002 9.0 0.9883073407 -0.152474917011 0.0
10247413.3325 851886.817002 14.0 0.9883073407 -0.152474917011 0.0
10247414.2473 851892.746846 3.0 0.9883073407 -0.152474917011 0.0
10247414.2473 851892.746846 9.0 0.9883073407 -0.152474917011 0.0
10247414.2473 851892.746846 14.0 0.9883073407 -0.152474917011 0.0
10247415.1622 851898.67669 3.0 0.9883073407 -0.152474917011 0.0
10247415.1622 851898.67669 9.0 0.9883073407 -0.152474917011 0.0
10247415.1622 851898.67669 14.0 0.9883073407 -0.152474917011 0.0
10247415.6563 851901.8795 3.0 0.9883073407 -0.152474917011 0.0
10247415.6563 851901.8795 9.0 0.9883073407 -0.152474917011 0.0
10247415.6563 851901.8795 14.0 0.9883073407 -0.152474917011 0.0
10247416.8372 851877.053517 13.0 0.177301747176 0.984156537573 -2.27976720215e-18
10247416.8372 851877.053517 7.0 0.177301747176 0.984156537573 -2.27976720215e-18
10247416.8372 851877.053517 2.0 0.177301747176 0.984156537573 -2.27976720215e-18
10247412.9184 851877.759512 13.0 0.177301747176 0.984156537573 -2.27976720215e-18
10247412.9184 851877.759512 7.0 0.177301747176 0.984156537573 -2.27976720215e-18
10247412.9184 851877.759512 2.0 0.177301747176 0.984156537573 -2.27976720215e-18
10247423.292 851896.739833 3.0 -0.985242342972 0.171165199776 0.0
10247423.292 851896.739833 9.0 -0.985242342972 0.171165199776 0.0
10247423.292 851896.739833 14.0 -0.985242342972 0.171165199776 0.0
10247422.265 851890.828379 3.0 -0.985242342972 0.171165199776 0.0
10247422.265 851890.828379 9.0 -0.985242342972 0.171165199776 0.0
10247422.265 851890.828379 14.0 -0.985242342972 0.171165199776 0.0
10247421.238 851884.916925 3.0 -0.985242342972 0.171165199776 0.0
10247421.238 851884.916925 9.0 -0.985242342972 0.171165199776 0.0
10247421.238 851884.916925 14.0 -0.985242342972 0.171165199776 0.0
10247420.2513 851879.23734 3.0 -0.985242342972 0.171165199776 0.0
10247420.2513 851879.23734 9.0 -0.985242342972 0.171165199776 0.0
10247420.2513 851879.23734 14.0 -0.985242342972 0.171165199776 0.0
10247459.9507 851893.187613 13.0 0.177470207758 0.984126173495 -0.0
10247459.9507 851893.187613 7.0 0.177470207758 0.984126173495 -0.0
10247459.9507 851893.187613 2.0 0.177470207758 0.984126173495 -0.0
10247454.0459 851894.252434 13.0 0.177470207758 0.984126173495 -0.0
10247454.0459 851894.252434 7.0 0.177470207758 0.984126173495 -0.0
10247454.0459 851894.252434 2.0 0.177470207758 0.984126173495 -0.0
10247448.1412 851895.317255 13.0 0.177470207758 0.984126173495 -0.0
10247448.1412 851895.317255 7.0 0.177470207758 0.984126173495 -0.0
10247448.1412 851895.317255 2.0 0.177470207758 0.984126173495 -0.0
10247442.2364 851896.382077 13.0 0.177470207758 0.984126173495 -0.0
10247442.2364 851896.382077 7.0 0.177470207758 0.984126173495 -0.0
10247442.2364 851896.382077 2.0 0.177470207758 0.984126173495 -0.0
10247436.3317 851897.446898 13.0 0.177470207758 0.984126173495 -0.0
10247436.3317 851897.446898 7.0 0.177470207758 0.984126173495 -0.0
10247436.3317 851897.446898 2.0 0.177470207758 0.984126173495 -0.0
10247430.4269 851898.511719 13.0 0.177470207758 0.984126173495 -0.0
10247430.4269 851898.511719 7.0 0.177470207758 0.984126173495 -0.0
10247430.4269 851898.511719 2.0 0.177470207758 0.984126173495 -0.0
10247425.6458 851899.37391 13.0 0.177470207758 0.984126173495 -0.0
10247425.6458 851899.37391 7.0 0.177470207758 0.984126173495 -0.0
10247425.6458 851899.37391 2.0 0.177470207758 0.984126173495 -0.0
10247462.3978 851889.6879 3.0 0.985249999598 -0.171121121702 -0.0
10247462.3978 851889.6879 9.0 0.985249999598 -0.171121121702 -0.0
10247462.3978 851889.6879 14.0 0.985249999598 -0.171121121702 -0.0
10247461.3711 851883.7764 3.0 0.985249999598 -0.171121121702 -0.0
10247461.3711 851883.7764 9.0 0.985249999598 -0.171121121702 -0.0
10247461.3711 851883.7764 14.0 0.985249999598 -0.171121121702 -0.0
10247460.3443 851877.8649 3.0 0.985249999598 -0.171121121702 -0.0
10247460.3443 851877.8649 9.0 0.985249999598 -0.171121121702 -0.0
10247460.3443 851877.8649 14.0 0.985249999598 -0.171121121702 -0.0
10247459.3176 851871.9534 3.0 0.985249999598 -0.171121121702 -0.0
10247459.3176 851871.9534 9.0 0.985249999598 -0.171121121702 -0.0
10247459.3176 851871.9534 14.0 0.985249999598 -0.171121121702 -0.0
10247458.2909 851866.0419 3.0 0.985249999598 -0.171121121702 -0.0
10247458.2909 851866.0419 9.0 0.985249999598 -0.171121121702 -0.0
10247458.2909 851866.0419 14.0 0.985249999598 -0.171121121702 -0.0
10247457.2642 851860.1304 3.0 0.985249999598 -0.171121121702 -0.0
10247457.2642 851860.1304 9.0 0.985249999598 -0.171121121702 -0.0
10247457.2642 851860.1304 14.0 0.985249999598 -0.171121121702 -0.0
10247456.2374 851854.2189 3.0 0.985249999598 -0.171121121702 -0.0
10247456.2374 851854.2189 9.0 0.985249999598 -0.171121121702 -0.0
10247456.2374 851854.2189 14.0 0.985249999598 -0.171121121702 -0.0
10247455.2107 851848.3074 3.0 0.985249999598 -0.171121121702 -0.0
10247455.2107 851848.3074 9.0 0.985249999598 -0.171121121702 -0.0
10247455.2107 851848.3074 14.0 0.985249999598 -0.171121121702 -0.0
10247454.3417 851843.304281 3.0 0.985249999598 -0.171121121702 -0.0
10247454.3417 851843.304281 9.0 0.985249999598 -0.171121121702 -0.0
10247454.3417 851843.304281 14.0 0.985249999598 -0.171121121702 -0.0
10247417.8802 851847.755735 13.0 -0.177416580079 -0.984135842815 -0.0
10247417.8802 851847.755735 7.0 -0.177416580079 -0.984135842815 -0.0
10247417.8802 851847.755735 2.0 -0.177416580079 -0.984135842815 -0.0
10247423.785 851846.691235 13.0 -0.177416580079 -0.984135842815 -0.0
10247423.785 851846.691235 7.0 -0.177416580079 -0.984135842815 -0.0
10247423.785 851846.691235 2.0 -0.177416580079 -0.984135842815 -0.0
10247429.6899 851845.626736 13.0 -0.177416580079 -0.984135842815 -0.0
10247429.6899 851845.626736 7.0 -0.177416580079 -0.984135842815 -0.0
10247429.6899 851845.626736 2.0 -0.177416580079 -0.984135842815 -0.0
10247435.5947 851844.562236 13.0 -0.177416580079 -0.984135842815 -0.0
10247435.5947 851844.562236 7.0 -0.177416580079 -0.984135842815 -0.0
10247435.5947 851844.562236 2.0 -0.177416580079 -0.984135842815 -0.0
10247441.4995 851843.497737 13.0 -0.177416580079 -0.984135842815 -0.0
10247441.4995 851843.497737 7.0 -0.177416580079 -0.984135842815 -0.0
10247441.4995 851843.497737 2.0 -0.177416580079 -0.984135842815 -0.0
10247447.4043 851842.433237 13.0 -0.177416580079 -0.984135842815 -0.0
10247447.4043 851842.433237 7.0 -0.177416580079 -0.984135842815 -0.0
10247447.4043 851842.433237 2.0 -0.177416580079 -0.984135842815 -0.0
10247452.1656 851841.574885 13.0 -0.177416580079 -0.984135842815 -0.0
10247452.1656 851841.574885 7.0 -0.177416580079 -0.984135842815 -0.0
10247452.1656 851841.574885 2.0 -0.177416580079 -0.984135842815 -0.0
10247415.433 851851.255301 3.0 -0.98525465326 0.171094325533 -0.0
10247415.433 851851.255301 9.0 -0.98525465326 0.171094325533 -0.0
10247415.433 851851.255301 14.0 -0.98525465326 0.171094325533 -0.0
10247416.4596 851857.166829 3.0 -0.98525465326 0.171094325533 -0.0
10247416.4596 851857.166829 9.0 -0.98525465326 0.171094325533 -0.0
10247416.4596 851857.166829 14.0 -0.98525465326 0.171094325533 -0.0
10247417.459 851862.922018 3.0 -0.98525465326 0.171094325533 -0.0
10247417.459 851862.922018 9.0 -0.98525465326 0.171094325533 -0.0
10247417.459 851862.922018 14.0 -0.98525465326 0.171094325533 -0.0
10247413.2249 851866.566052 13.0 -0.178173865961 -0.983999021081 -0.0
10247413.2249 851866.566052 7.0 -0.178173865961 -0.983999021081 -0.0
10247413.2249 851866.566052 2.0 -0.178173865961 -0.983999021081 -0.0
10247417.0651 851865.870712 13.0 -0.178173865961 -0.983999021081 -0.0
10247417.0651 851865.870712 7.0 -0.178173865961 -0.983999021081 -0.0
10247417.0651 851865.870712 2.0 -0.178173865961 -0.983999021081 -0.0
