35374.2166211 43054.7379082 18.0 0.284895783488 0.958558497198 -2.10940305066e-21
35374.2166211 43054.7379082 12.0 0.284895783488 0.958558497198 -2.10940305066e-21
35374.2166211 43054.7379082 6.0 0.284895783488 0.958558497198 -2.10940305066e-21
35374.2166211 43054.7379082 1.5 0.284895783488 0.958558497198 -2.10940305066e-21
35369.6037654 43056.1089076 42.0 0.284895783488 0.958558497198 -2.10940305066e-21
35369.6037654 43056.1089076 36.0 0.284895783488 0.958558497198 -2.10940305066e-21
35369.6037654 43056.1089076 30.0 0.284895783488 0.958558497198 -2.10940305066e-21
35369.6037654 43056.1089076 24.0 0.284895783488 0.958558497198 -2.10940305066e-21
35369.6037654 43056.1089076 18.0 0.284895783488 0.958558497198 -2.10940305066e-21
35369.6037654 43056.1089076 12.0 0.284895783488 0.958558497198 -2.10940305066e-21
35369.6037654 43056.1089076 6.0 0.284895783488 0.958558497198 -2.10940305066e-21
35369.6037654 43056.1089076 1.5 0.284895783488 0.958558497198 -2.10940305066e-21
35376.0525835 43050.4065747 3.0 0.957277998946 -0.289169211248 6.63412044567e-19
35376.0525835 43050.4065747 9.0 0.957277998946 -0.289169211248 6.63412044567e-19
35376.0525835 43050.4065747 15.0 0.957277998946 -0.289169211248 6.63412044567e-19
35376.0525835 43050.4065747 21.0 0.957277998946 -0.289169211248 6.63412044567e-19
35376.0525835 43050.4065747 27.0 0.957277998946 -0.289169211248 6.63412044567e-19
35376.0525835 43050.4065747 33.0 0.957277998946 -0.289169211248 6.63412044567e-19
35376.0525835 43050.4065747 39.0 0.957277998946 -0.289169211248 6.63412044567e-19
35376.0525835 43050.4065747 43.5 0.957277998946 -0.289169211248 6.63412044567e-19
35377.0095558 43053.5745762 3.0 0.957277998946 -0.289169211248 6.63412044567e-19
35377.0095558 43053.5745762 9.0 0.957277998946 -0.289169211248 6.63412044567e-19
35377.0095558 43053.5745762 15.0 0.957277998946 -0.289169211248 6.63412044567e-19
35377.0095558 43053.5745762 21.0 0.957277998946 -0.289169211248 6.63412044567e-19
35377.0095558 43053.5745762 27.0 0.957277998946 -0.289169211248 6.63412044567e-19
35377.0095558 43053.5745762 33.0 0.957277998946 -0.289169211248 6.63412044567e-19
35377.0095558 43053.5745762 39.0 0.957277998946 -0.289169211248 6.63412044567e-19
35377.0095558 43053.5745762 43.5 0.957277998946 -0.289169211248 6.63412044567e-19
35376.413624 43047.1823603 42.0 0.283268300086 0.959040703081 3.68470277288e-19
35376.413624 43047.1823603 36.0 0.283268300086 0.959040703081 3.68470277288e-19
35376.413624 43047.1823603 30.0 0.283268300086 0.959040703081 3.68470277288e-19
35376.413624 43047.1823603 24.0 0.283268300086 0.959040703081 3.68470277288e-19
35376.413624 43047.1823603 18.0 0.283268300086 0.959040703081 3.68470277288e-19
35376.413624 43047.1823603 12.0 0.283268300086 0.959040703081 3.68470277288e-19
35376.413624 43047.1823603 6.0 0.283268300086 0.959040703081 3.68470277288e-19
35376.413624 43047.1823603 1.5 0.283268300086 0.959040703081 3.68470277288e-19
35378.6990977 43050.3508386 3.0 -0.957783149606 0.287491631757 -1.02425340674e-18
35378.6990977 43050.3508386 9.0 -0.957783149606 0.287491631757 -1.02425340674e-18
35378.6990977 43050.3508386 15.0 -0.957783149606 0.287491631757 -1.02425340674e-18
35378.6990977 43050.3508386 21.0 -0.957783149606 0.287491631757 -1.02425340674e-18
35378.6990977 43050.3508386 27.0 -0.957783149606 0.287491631757 -1.02425340674e-18
35378.6990977 43050.3508386 33.0 -0.957783149606 0.287491631757 -1.02425340674e-18
35378.6990977 43050.3508386 39.0 -0.957783149606 0.287491631757 -1.02425340674e-18
35378.6990977 43050.3508386 43.5 -0.957783149606 0.287491631757 -1.02425340674e-18
35377.7365622 43047.1441357 3.0 -0.957783149606 0.287491631757 -1.02425340674e-18
35377.7365622 43047.1441357 9.0 -0.957783149606 0.287491631757 -1.02425340674e-18
35377.7365622 43047.1441357 15.0 -0.957783149606 0.287491631757 -1.02425340674e-18
35377.7365622 43047.1441357 21.0 -0.957783149606 0.287491631757 -1.02425340674e-18
35377.7365622 43047.1441357 27.0 -0.957783149606 0.287491631757 -1.02425340674e-18
35377.7365622 43047.1441357 33.0 -0.957783149606 0.287491631757 -1.02425340674e-18
35377.7365622 43047.1441357 39.0 -0.957783149606 0.287491631757 -1.02425340674e-18
35377.7365622 43047.1441357 43.5 -0.957783149606 0.287491631757 -1.02425340674e-18
35382.4502393 43052.3781362 42.0 0.284254804571 0.958748771096 3.4210333883e-19
35382.4502393 43052.3781362 36.0 0.284254804571 0.958748771096 3.4210333883e-19
35382.4502393 43052.3781362 30.0 0.284254804571 0.958748771096 3.4210333883e-19
35382.4502393 43052.3781362 24.0 0.284254804571 0.958748771096 3.4210333883e-19
35382.4502393 43052.3781362 18.0 0.284254804571 0.958748771096 3.4210333883e-19
35382.4502393 43052.3781362 12.0 0.284254804571 0.958748771096 3.4210333883e-19
35382.4502393 43052.3781362 6.0 0.284254804571 0.958748771096 3.4210333883e-19
35382.4502393 43052.3781362 1.5 0.284254804571 0.958748771096 3.4210333883e-19
35387.3913923 43050.9131575 42.0 0.284254804571 0.958748771096 3.4210333883e-19
35387.3913923 43050.9131575 36.0 0.284254804571 0.958748771096 3.4210333883e-19
35387.3913923 43050.9131575 30.0 0.284254804571 0.958748771096 3.4210333883e-19
35387.3913923 43050.9131575 24.0 0.284254804571 0.958748771096 3.4210333883e-19
35387.3913923 43050.9131575 18.0 0.284254804571 0.958748771096 3.4210333883e-19
35387.3913923 43050.9131575 12.0 0.284254804571 0.958748771096 3.4210333883e-19
35387.3913923 43050.9131575 6.0 0.284254804571 0.958748771096 3.4210333883e-19
35387.3913923 43050.9131575 1.5 0.284254804571 0.958748771096 3.4210333883e-19
35387.768322 43044.6578828 3.0 0.95756692355 -0.288211011105 -8.44617065213e-19
35387.768322 43044.6578828 9.0 0.95756692355 -0.288211011105 -8.44617065213e-19
35387.768322 43044.6578828 15.0 0.95756692355 -0.288211011105 -8.44617065213e-19
35387.768322 43044.6578828 21.0 0.95756692355 -0.288211011105 -8.44617065213e-19
35387.768322 43044.6578828 27.0 0.95756692355 -0.288211011105 -8.44617065213e-19
35387.768322 43044.6578828 33.0 0.95756692355 -0.288211011105 -8.44617065213e-19
35387.768322 43044.6578828 39.0 0.95756692355 -0.288211011105 -8.44617065213e-19
35387.768322 43044.6578828 43.5 0.95756692355 -0.288211011105 -8.44617065213e-19
35389.0479936 43048.9095286 3.0 0.95756692355 -0.288211011105 -8.44617065213e-19
35389.0479936 43048.9095286 9.0 0.95756692355 -0.288211011105 -8.44617065213e-19
35389.0479936 43048.9095286 15.0 0.95756692355 -0.288211011105 -8.44617065213e-19
35389.0479936 43048.9095286 21.0 0.95756692355 -0.288211011105 -8.44617065213e-19
35389.0479936 43048.9095286 27.0 0.95756692355 -0.288211011105 -8.44617065213e-19
35389.0479936 43048.9095286 33.0 0.95756692355 -0.288211011105 -8.44617065213e-19
35389.0479936 43048.9095286 39.0 0.95756692355 -0.288211011105 -8.44617065213e-19
35389.0479936 43048.9095286 43.5 0.95756692355 -0.288211011105 -8.44617065213e-19
35385.0160696 43042.3368305 42.0 -0.285374886129 -0.958415971469 -9.67132047554e-20
35385.0160696 43042.3368305 36.0 -0.285374886129 -0.958415971469 -9.67132047554e-20
35385.0160696 43042.3368305 30.0 -0.285374886129 -0.958415971469 -9.67132047554e-20
35385.0160696 43042.3368305 24.0 -0.285374886129 -0.958415971469 -9.67132047554e-20
35385.0160696 43042.3368305 18.0 -0.285374886129 -0.958415971469 -9.67132047554e-20
35385.0160696 43042.3368305 12.0 -0.285374886129 -0.958415971469 -9.67132047554e-20
35385.0160696 43042.3368305 6.0 -0.285374886129 -0.958415971469 -9.67132047554e-20
35385.0160696 43042.3368305 1.5 -0.285374886129 -0.958415971469 -9.67132047554e-20
35382.7193243 43041.4754246 3.0 0.956702802024 -0.291066570735 -4.4039921817e-19
35382.7193243 43041.4754246 9.0 0.956702802024 -0.291066570735 -4.4039921817e-19
35382.7193243 43041.4754246 15.0 0.956702802024 -0.291066570735 -4.4039921817e-19
35382.7193243 43041.4754246 21.0 0.956702802024 -0.291066570735 -4.4039921817e-19
35382.7193243 43041.4754246 27.0 0.956702802024 -0.291066570735 -4.4039921817e-19
35382.7193243 43041.4754246 33.0 0.956702802024 -0.291066570735 -4.4039921817e-19
35382.7193243 43041.4754246 39.0 0.956702802024 -0.291066570735 -4.4039921817e-19
35382.7193243 43041.4754246 43.5 0.956702802024 -0.291066570735 -4.4039921817e-19
35384.415348 43039.4257442 42.0 0.285178850642 0.958474320546 1.50168767611e-19
35384.415348 43039.4257442 36.0 0.285178850642 0.958474320546 1.50168767611e-19
35384.415348 43039.4257442 30.0 0.285178850642 0.958474320546 1.50168767611e-19
35384.415348 43039.4257442 24.0 0.285178850642 0.958474320546 1.50168767611e-19
35384.415348 43039.4257442 18.0 0.285178850642 0.958474320546 1.50168767611e-19
35384.415348 43039.4257442 12.0 0.285178850642 0.958474320546 1.50168767611e-19
35384.415348 43039.4257442 6.0 0.285178850642 0.958474320546 1.50168767611e-19
35384.415348 43039.4257442 1.5 0.285178850642 0.958474320546 1.50168767611e-19
35385.6953407 43035.9044783 3.0 0.95768578575 -0.28781580181 -8.62295094115e-19
35385.6953407 43035.9044783 9.0 0.95768578575 -0.28781580181 -8.62295094115e-19
35385.6953407 43035.9044783 15.0 0.95768578575 -0.28781580181 -8.62295094115e-19
35385.6953407 43035.9044783 21.0 0.95768578575 -0.28781580181 -8.62295094115e-19
35385.6953407 43035.9044783 27.0 0.95768578575 -0.28781580181 -8.62295094115e-19
35385.6953407 43035.9044783 33.0 0.95768578575 -0.28781580181 -8.62295094115e-19
35385.6953407 43035.9044783 39.0 0.95768578575 -0.28781580181 -8.62295094115e-19
35385.6953407 43035.9044783 43.5 0.95768578575 -0.28781580181 -8.62295094115e-19
35384.5937104 43032.2388851 3.0 0.95768578575 -0.28781580181 -8.62295094115e-19
35384.5937104 43032.2388851 9.0 0.95768578575 -0.28781580181 -8.62295094115e-19
35384.5937104 43032.2388851 15.0 0.95768578575 -0.28781580181 -8.62295094115e-19
35384.5937104 43032.2388851 21.0 0.95768578575 -0.28781580181 -8.62295094115e-19
35384.5937104 43032.2388851 27.0 0.95768578575 -0.28781580181 -8.62295094115e-19
35384.5937104 43032.2388851 33.0 0.95768578575 -0.28781580181 -8.62295094115e-19
35384.5937104 43032.2388851 39.0 0.95768578575 -0.28781580181 -8.62295094115e-19
35384.5937104 43032.2388851 43.5 0.95768578575 -0.28781580181 -8.62295094115e-19
35377.6709529 43033.4174698 42.0 -0.284206536454 -0.958763080556 -8.16592513391e-19
35377.6709529 43033.4174698 36.0 -0.284206536454 -0.958763080556 -8.16592513391e-19
35377.6709529 43033.4174698 30.0 -0.284206536454 -0.958763080556 -8.16592513391e-19
35377.6709529 43033.4174698 24.0 -0.284206536454 -0.958763080556 -8.16592513391e-19
35377.6709529 43033.4174698 18.0 -0.284206536454 -0.958763080556 -8.16592513391e-19
35377.6709529 43033.4174698 12.0 -0.284206536454 -0.958763080556 -8.16592513391e-19
35377.6709529 43033.4174698 6.0 -0.284206536454 -0.958763080556 -8.16592513391e-19
35377.6709529 43033.4174698 1.5 -0.284206536454 -0.958763080556 -8.16592513391e-19
35382.4451754 43032.002245 42.0 -0.284206536454 -0.958763080556 -8.16592513391e-19
35382.4451754 43032.002245 36.0 -0.284206536454 -0.958763080556 -8.16592513391e-19
35382.4451754 43032.002245 30.0 -0.284206536454 -0.958763080556 -8.16592513391e-19
35382.4451754 43032.002245 24.0 -0.284206536454 -0.958763080556 -8.16592513391e-19
35382.4451754 43032.002245 18.0 -0.284206536454 -0.958763080556 -8.16592513391e-19
35382.4451754 43032.002245 12.0 -0.284206536454 -0.958763080556 -8.16592513391e-19
35382.4451754 43032.002245 6.0 -0.284206536454 -0.958763080556 -8.16592513391e-19
35382.4451754 43032.002245 1.5 -0.284206536454 -0.958763080556 -8.16592513391e-19
35375.5390425 43036.7760492 3.0 -0.957501697831 0.288427631568 4.70502107361e-19
35375.5390425 43036.7760492 9.0 -0.957501697831 0.288427631568 4.70502107361e-19
35375.5390425 43036.7760492 15.0 -0.957501697831 0.288427631568 4.70502107361e-19
35375.5390425 43036.7760492 21.0 -0.957501697831 0.288427631568 4.70502107361e-19
35375.5390425 43036.7760492 27.0 -0.957501697831 0.288427631568 4.70502107361e-19
35375.5390425 43036.7760492 33.0 -0.957501697831 0.288427631568 4.70502107361e-19
35375.5390425 43036.7760492 39.0 -0.957501697831 0.288427631568 4.70502107361e-19
35375.5390425 43036.7760492 43.5 -0.957501697831 0.288427631568 4.70502107361e-19
35375.6792525 43039.4394938 42.0 -0.283268371492 -0.95904068199 7.0285962988e-20
35375.6792525 43039.4394938 36.0 -0.283268371492 -0.95904068199 7.0285962988e-20
35375.6792525 43039.4394938 30.0 -0.283268371492 -0.95904068199 7.0285962988e-20
35375.6792525 43039.4394938 24.0 -0.283268371492 -0.95904068199 7.0285962988e-20
35375.6792525 43039.4394938 18.0 -0.283268371492 -0.95904068199 7.0285962988e-20
35375.6792525 43039.4394938 12.0 -0.283268371492 -0.95904068199 7.0285962988e-20
35375.6792525 43039.4394938 6.0 -0.283268371492 -0.95904068199 7.0285962988e-20
35375.6792525 43039.4394938 1.5 -0.283268371492 -0.95904068199 7.0285962988e-20
35374.5009479 43037.7212028 3.0 0.957710162108 -0.287734678818 5.98744806319e-19
35374.5009479 43037.7212028 9.0 0.957710162108 -0.287734678818 5.98744806319e-19
35374.5009479 43037.7212028 15.0 0.957710162108 -0.287734678818 5.98744806319e-19
35374.5009479 43037.7212028 21.0 0.957710162108 -0.287734678818 5.98744806319e-19
35374.5009479 43037.7212028 27.0 0.957710162108 -0.287734678818 5.98744806319e-19
35374.5009479 43037.7212028 33.0 0.957710162108 -0.287734678818 5.98744806319e-19
35374.5009479 43037.7212028 39.0 0.957710162108 -0.287734678818 5.98744806319e-19
35374.5009479 43037.7212028 43.5 0.957710162108 -0.287734678818 5.98744806319e-19
35372.9305569 43036.1000558 42.0 -0.285140292564 -0.958485792047 -8.97530716898e-20
35372.9305569 43036.1000558 36.0 -0.285140292564 -0.958485792047 -8.97530716898e-20
35372.9305569 43036.1000558 30.0 -0.285140292564 -0.958485792047 -8.97530716898e-20
35372.9305569 43036.1000558 24.0 -0.285140292564 -0.958485792047 -8.97530716898e-20
35372.9305569 43036.1000558 18.0 -0.285140292564 -0.958485792047 -8.97530716898e-20
35372.9305569 43036.1000558 12.0 -0.285140292564 -0.958485792047 -8.97530716898e-20
35372.9305569 43036.1000558 6.0 -0.285140292564 -0.958485792047 -8.97530716898e-20
35372.9305569 43036.1000558 1.5 -0.285140292564 -0.958485792047 -8.97530716898e-20
35372.5008802 43038.279771 3.0 -0.957873548291 0.287190294899 -3.47830317502e-19
35372.5008802 43038.279771 9.0 -0.957873548291 0.287190294899 -3.47830317502e-19
35372.5008802 43038.279771 15.0 -0.957873548291 0.287190294899 -3.47830317502e-19
35372.5008802 43038.279771 21.0 -0.957873548291 0.287190294899 -3.47830317502e-19
35372.5008802 43038.279771 27.0 -0.957873548291 0.287190294899 -3.47830317502e-19
35372.5008802 43038.279771 33.0 -0.957873548291 0.287190294899 -3.47830317502e-19
35372.5008802 43038.279771 39.0 -0.957873548291 0.287190294899 -3.47830317502e-19
35372.5008802 43038.279771 43.5 -0.957873548291 0.287190294899 -3.47830317502e-19
35372.502032 43040.3074094 42.0 -0.280477936455 -0.959860472757 -7.49183248794e-21
35372.502032 43040.3074094 36.0 -0.280477936455 -0.959860472757 -7.49183248794e-21
35372.502032 43040.3074094 30.0 -0.280477936455 -0.959860472757 -7.49183248794e-21
35372.502032 43040.3074094 24.0 -0.280477936455 -0.959860472757 -7.49183248794e-21
35372.502032 43040.3074094 18.0 -0.280477936455 -0.959860472757 -7.49183248794e-21
35372.502032 43040.3074094 12.0 -0.280477936455 -0.959860472757 -7.49183248794e-21
35372.502032 43040.3074094 6.0 -0.280477936455 -0.959860472757 -7.49183248794e-21
35372.502032 43040.3074094 1.5 -0.280477936455 -0.959860472757 -7.49183248794e-21
35371.3014438 43038.3458435 3.0 0.957186308859 -0.289472572333 -5.17518384549e-19
35371.3014438 43038.3458435 9.0 0.957186308859 -0.289472572333 -5.17518384549e-19
35371.3014438 43038.3458435 15.0 0.957186308859 -0.289472572333 -5.17518384549e-19
35371.3014438 43038.3458435 21.0 0.957186308859 -0.289472572333 -5.17518384549e-19
35371.3014438 43038.3458435 27.0 0.957186308859 -0.289472572333 -5.17518384549e-19
35371.3014438 43038.3458435 33.0 0.957186308859 -0.289472572333 -5.17518384549e-19
35371.3014438 43038.3458435 39.0 0.957186308859 -0.289472572333 -5.17518384549e-19
35371.3014438 43038.3458435 43.5 0.957186308859 -0.289472572333 -5.17518384549e-19
35365.7296526 43037.6626788 42.0 -0.284384450874 -0.958710323352 -4.22914226001e-19
35365.7296526 43037.6626788 36.0 -0.284384450874 -0.958710323352 -4.22914226001e-19
35365.7296526 43037.6626788 30.0 -0.284384450874 -0.958710323352 -4.22914226001e-19
35365.7296526 43037.6626788 24.0 -0.284384450874 -0.958710323352 -4.22914226001e-19
35365.7296526 43037.6626788 18.0 -0.284384450874 -0.958710323352 -4.22914226001e-19
35365.7296526 43037.6626788 12.0 -0.284384450874 -0.958710323352 -4.22914226001e-19
35365.7296526 43037.6626788 6.0 -0.284384450874 -0.958710323352 -4.22914226001e-19
35365.7296526 43037.6626788 1.5 -0.284384450874 -0.958710323352 -4.22914226001e-19
35369.6247058 43036.5072802 42.0 -0.284384450874 -0.958710323352 -4.22914226001e-19
35369.6247058 43036.5072802 36.0 -0.284384450874 -0.958710323352 -4.22914226001e-19
35369.6247058 43036.5072802 30.0 -0.284384450874 -0.958710323352 -4.22914226001e-19
35369.6247058 43036.5072802 24.0 -0.284384450874 -0.958710323352 -4.22914226001e-19
35369.6247058 43036.5072802 18.0 -0.284384450874 -0.958710323352 -4.22914226001e-19
35369.6247058 43036.5072802 12.0 -0.284384450874 -0.958710323352 -4.22914226001e-19
35369.6247058 43036.5072802 6.0 -0.284384450874 -0.958710323352 -4.22914226001e-19
35369.6247058 43036.5072802 1.5 -0.284384450874 -0.958710323352 -4.22914226001e-19
35363.7090992 43041.4016921 3.0 -0.957799472825 0.287437245074 2.20469267114e-19
35363.7090992 43041.4016921 9.0 -0.957799472825 0.287437245074 2.20469267114e-19
35363.7090992 43041.4016921 15.0 -0.957799472825 0.287437245074 2.20469267114e-19
35363.7090992 43041.4016921 21.0 -0.957799472825 0.287437245074 2.20469267114e-19
35363.7090992 43041.4016921 27.0 -0.957799472825 0.287437245074 2.20469267114e-19
35363.7090992 43041.4016921 33.0 -0.957799472825 0.287437245074 2.20469267114e-19
35363.7090992 43041.4016921 39.0 -0.957799472825 0.287437245074 2.20469267114e-19
35363.7090992 43041.4016921 43.5 -0.957799472825 0.287437245074 2.20469267114e-19
35364.6382521 43044.4978189 3.0 -0.957799472825 0.287437245074 2.20469267114e-19
35364.6382521 43044.4978189 9.0 -0.957799472825 0.287437245074 2.20469267114e-19
35364.6382521 43044.4978189 15.0 -0.957799472825 0.287437245074 2.20469267114e-19
35364.6382521 43044.4978189 21.0 -0.957799472825 0.287437245074 2.20469267114e-19
35364.6382521 43044.4978189 27.0 -0.957799472825 0.287437245074 2.20469267114e-19
35364.6382521 43044.4978189 33.0 -0.957799472825 0.287437245074 2.20469267114e-19
35364.6382521 43044.4978189 39.0 -0.957799472825 0.287437245074 2.20469267114e-19
35364.6382521 43044.4978189 43.5 -0.957799472825 0.287437245074 2.20469267114e-19
35366.8264045 43044.102572 42.0 0.284018075774 0.958818925884 -2.26948558665e-19
35366.8264045 43044.102572 36.0 0.284018075774 0.958818925884 -2.26948558665e-19
35366.8264045 43044.102572 30.0 0.284018075774 0.958818925884 -2.26948558665e-19
35366.8264045 43044.102572 24.0 0.284018075774 0.958818925884 -2.26948558665e-19
35366.8264045 43044.102572 18.0 0.284018075774 0.958818925884 -2.26948558665e-19
35366.8264045 43044.102572 12.0 0.284018075774 0.958818925884 -2.26948558665e-19
35366.8264045 43044.102572 6.0 0.284018075774 0.958818925884 -2.26948558665e-19
35366.8264045 43044.102572 1.5 0.284018075774 0.958818925884 -2.26948558665e-19
35369.4681297 43045.2901405 3.0 -0.95789018666 0.287134794652 4.64616162876e-19
35369.4681297 43045.2901405 9.0 -0.95789018666 0.287134794652 4.64616162876e-19
35369.4681297 43045.2901405 15.0 -0.95789018666 0.287134794652 4.64616162876e-19
35369.4681297 43045.2901405 21.0 -0.95789018666 0.287134794652 4.64616162876e-19
35369.4681297 43045.2901405 27.0 -0.95789018666 0.287134794652 4.64616162876e-19
35369.4681297 43045.2901405 33.0 -0.95789018666 0.287134794652 4.64616162876e-19
35369.4681297 43045.2901405 39.0 -0.95789018666 0.287134794652 4.64616162876e-19
35369.4681297 43045.2901405 43.5 -0.95789018666 0.287134794652 4.64616162876e-19
35367.7164834 43047.7766239 42.0 -0.283096684646 -0.959091375804 5.15051463223e-20
35367.7164834 43047.7766239 36.0 -0.283096684646 -0.959091375804 5.15051463223e-20
35367.7164834 43047.7766239 30.0 -0.283096684646 -0.959091375804 5.15051463223e-20
35367.7164834 43047.7766239 24.0 -0.283096684646 -0.959091375804 5.15051463223e-20
35367.7164834 43047.7766239 18.0 -0.283096684646 -0.959091375804 5.15051463223e-20
35367.7164834 43047.7766239 12.0 -0.283096684646 -0.959091375804 5.15051463223e-20
35367.7164834 43047.7766239 6.0 -0.283096684646 -0.959091375804 5.15051463223e-20
35367.7164834 43047.7766239 1.5 -0.283096684646 -0.959091375804 5.15051463223e-20
35366.9910698 43053.7453461 3.0 -0.957721649428 0.287696441093 1.20221639432e-18
35366.9910698 43053.7453461 9.0 -0.957721649428 0.287696441093 1.20221639432e-18
35366.9910698 43053.7453461 15.0 -0.957721649428 0.287696441093 1.20221639432e-18
35366.9910698 43053.7453461 21.0 -0.957721649428 0.287696441093 1.20221639432e-18
35366.9910698 43053.7453461 27.0 -0.957721649428 0.287696441093 1.20221639432e-18
35366.9910698 43053.7453461 33.0 -0.957721649428 0.287696441093 1.20221639432e-18
35366.9910698 43053.7453461 39.0 -0.957721649428 0.287696441093 1.20221639432e-18
35366.9910698 43053.7453461 43.5 -0.957721649428 0.287696441093 1.20221639432e-18
35365.767036 43049.670622 3.0 -0.957721649428 0.287696441093 1.20221639432e-18
35365.767036 43049.670622 9.0 -0.957721649428 0.287696441093 1.20221639432e-18
35365.767036 43049.670622 15.0 -0.957721649428 0.287696441093 1.20221639432e-18
35365.767036 43049.670622 21.0 -0.957721649428 0.287696441093 1.20221639432e-18
35365.767036 43049.670622 27.0 -0.957721649428 0.287696441093 1.20221639432e-18
35365.767036 43049.670622 33.0 -0.957721649428 0.287696441093 1.20221639432e-18
35365.767036 43049.670622 39.0 -0.957721649428 0.287696441093 1.20221639432e-18
35365.767036 43049.670622 43.5 -0.957721649428 0.287696441093 1.20221639432e-18
35363.3489309 43051.6029193 3.0 0.954454507779 -0.298356485734 7.92372994292e-19
35363.3489309 43051.6029193 9.0 0.954454507779 -0.298356485734 7.92372994292e-19
35363.3489309 43051.6029193 15.0 0.954454507779 -0.298356485734 7.92372994292e-19
35363.3489309 43051.6029193 21.0 0.954454507779 -0.298356485734 7.92372994292e-19
35363.3489309 43051.6029193 27.0 0.954454507779 -0.298356485734 7.92372994292e-19
35363.3489309 43051.6029193 33.0 0.954454507779 -0.298356485734 7.92372994292e-19
35363.3489309 43051.6029193 39.0 0.954454507779 -0.298356485734 7.92372994292e-19
35363.3489309 43051.6029193 43.5 0.954454507779 -0.298356485734 7.92372994292e-19
35364.6174797 43055.6610584 3.0 0.954454507779 -0.298356485734 7.92372994292e-19
35364.6174797 43055.6610584 9.0 0.954454507779 -0.298356485734 7.92372994292e-19
35364.6174797 43055.6610584 15.0 0.954454507779 -0.298356485734 7.92372994292e-19
35364.6174797 43055.6610584 21.0 0.954454507779 -0.298356485734 7.92372994292e-19
35364.6174797 43055.6610584 27.0 0.954454507779 -0.298356485734 7.92372994292e-19
35364.6174797 43055.6610584 33.0 0.954454507779 -0.298356485734 7.92372994292e-19
35364.6174797 43055.6610584 39.0 0.954454507779 -0.298356485734 7.92372994292e-19
35364.6174797 43055.6610584 43.5 0.954454507779 -0.298356485734 7.92372994292e-19
35360.1488711 43049.4350641 42.0 -0.292826911147 -0.956165466908 -1.15453251178e-19
35360.1488711 43049.4350641 36.0 -0.292826911147 -0.956165466908 -1.15453251178e-19
35360.1488711 43049.4350641 30.0 -0.292826911147 -0.956165466908 -1.15453251178e-19
35360.1488711 43049.4350641 24.0 -0.292826911147 -0.956165466908 -1.15453251178e-19
35360.1488711 43049.4350641 18.0 -0.292826911147 -0.956165466908 -1.15453251178e-19
35360.1488711 43049.4350641 12.0 -0.292826911147 -0.956165466908 -1.15453251178e-19
35360.1488711 43049.4350641 6.0 -0.292826911147 -0.956165466908 -1.15453251178e-19
35360.1488711 43049.4350641 1.5 -0.292826911147 -0.956165466908 -1.15453251178e-19
35357.3068893 43048.3303061 3.0 0.955190662736 -0.295991212407 -1.79579268003e-19
35357.3068893 43048.3303061 9.0 0.955190662736 -0.295991212407 -1.79579268003e-19
35357.3068893 43048.3303061 15.0 0.955190662736 -0.295991212407 -1.79579268003e-19
35357.3068893 43048.3303061 21.0 0.955190662736 -0.295991212407 -1.79579268003e-19
35357.3068893 43048.3303061 27.0 0.955190662736 -0.295991212407 -1.79579268003e-19
35357.3068893 43048.3303061 33.0 0.955190662736 -0.295991212407 -1.79579268003e-19
35357.3068893 43048.3303061 39.0 0.955190662736 -0.295991212407 -1.79579268003e-19
35357.3068893 43048.3303061 43.5 0.955190662736 -0.295991212407 -1.79579268003e-19
35358.8361043 43045.8825714 42.0 0.294642715195 0.955607487613 -1.1776572379e-19
35358.8361043 43045.8825714 36.0 0.294642715195 0.955607487613 -1.1776572379e-19
35358.8361043 43045.8825714 30.0 0.294642715195 0.955607487613 -1.1776572379e-19
35358.8361043 43045.8825714 24.0 0.294642715195 0.955607487613 -1.1776572379e-19
35358.8361043 43045.8825714 18.0 0.294642715195 0.955607487613 -1.1776572379e-19
35358.8361043 43045.8825714 12.0 0.294642715195 0.955607487613 -1.1776572379e-19
35358.8361043 43045.8825714 6.0 0.294642715195 0.955607487613 -1.1776572379e-19
35358.8361043 43045.8825714 1.5 0.294642715195 0.955607487613 -1.1776572379e-19
35360.0516666 43042.3579347 3.0 0.955104502903 -0.296269115052 -0.0
35360.0516666 43042.3579347 9.0 0.955104502903 -0.296269115052 -0.0
35360.0516666 43042.3579347 15.0 0.955104502903 -0.296269115052 -0.0
35360.0516666 43042.3579347 21.0 0.955104502903 -0.296269115052 -0.0
35360.0516666 43042.3579347 27.0 0.955104502903 -0.296269115052 -0.0
35360.0516666 43042.3579347 33.0 0.955104502903 -0.296269115052 -0.0
35360.0516666 43042.3579347 39.0 0.955104502903 -0.296269115052 -0.0
35360.0516666 43042.3579347 43.5 0.955104502903 -0.296269115052 -0.0
35359.0946917 43039.2728646 3.0 0.955104502903 -0.296269115052 -0.0
35359.0946917 43039.2728646 9.0 0.955104502903 -0.296269115052 -0.0
35359.0946917 43039.2728646 15.0 0.955104502903 -0.296269115052 -0.0
35359.0946917 43039.2728646 21.0 0.955104502903 -0.296269115052 -0.0
35359.0946917 43039.2728646 27.0 0.955104502903 -0.296269115052 -0.0
35359.0946917 43039.2728646 33.0 0.955104502903 -0.296269115052 -0.0
35359.0946917 43039.2728646 39.0 0.955104502903 -0.296269115052 -0.0
35359.0946917 43039.2728646 43.5 0.955104502903 -0.296269115052 -0.0
35354.1029476 43040.5542497 42.0 -0.293487218792 -0.955962997404 -3.55082373223e-19
35354.1029476 43040.5542497 36.0 -0.293487218792 -0.955962997404 -3.55082373223e-19
35354.1029476 43040.5542497 30.0 -0.293487218792 -0.955962997404 -3.55082373223e-19
35354.1029476 43040.5542497 24.0 -0.293487218792 -0.955962997404 -3.55082373223e-19
35354.1029476 43040.5542497 18.0 -0.293487218792 -0.955962997404 -3.55082373223e-19
35354.1029476 43040.5542497 12.0 -0.293487218792 -0.955962997404 -3.55082373223e-19
35354.1029476 43040.5542497 6.0 -0.293487218792 -0.955962997404 -3.55082373223e-19
35354.1029476 43040.5542497 1.5 -0.293487218792 -0.955962997404 -3.55082373223e-19
35357.9924375 43039.3601496 42.0 -0.293487218792 -0.955962997404 -3.55082373223e-19
35357.9924375 43039.3601496 36.0 -0.293487218792 -0.955962997404 -3.55082373223e-19
35357.9924375 43039.3601496 30.0 -0.293487218792 -0.955962997404 -3.55082373223e-19
35357.9924375 43039.3601496 24.0 -0.293487218792 -0.955962997404 -3.55082373223e-19
35357.9924375 43039.3601496 18.0 -0.293487218792 -0.955962997404 -3.55082373223e-19
35357.9924375 43039.3601496 12.0 -0.293487218792 -0.955962997404 -3.55082373223e-19
35357.9924375 43039.3601496 6.0 -0.293487218792 -0.955962997404 -3.55082373223e-19
35357.9924375 43039.3601496 1.5 -0.293487218792 -0.955962997404 -3.55082373223e-19
35351.890538 43043.575829 3.0 -0.95487383613 0.297011712016 3.56032062634e-19
35351.890538 43043.575829 9.0 -0.95487383613 0.297011712016 3.56032062634e-19
35351.890538 43043.575829 15.0 -0.95487383613 0.297011712016 3.56032062634e-19
35351.890538 43043.575829 21.0 -0.95487383613 0.297011712016 3.56032062634e-19
35351.890538 43043.575829 27.0 -0.95487383613 0.297011712016 3.56032062634e-19
35351.890538 43043.575829 33.0 -0.95487383613 0.297011712016 3.56032062634e-19
35351.890538 43043.575829 39.0 -0.95487383613 0.297011712016 3.56032062634e-19
35351.890538 43043.575829 43.5 -0.95487383613 0.297011712016 3.56032062634e-19
35351.9916392 43045.8688036 42.0 -0.297569766716 -0.954700075383 -6.0520698186e-20
35351.9916392 43045.8688036 36.0 -0.297569766716 -0.954700075383 -6.0520698186e-20
35351.9916392 43045.8688036 30.0 -0.297569766716 -0.954700075383 -6.0520698186e-20
35351.9916392 43045.8688036 24.0 -0.297569766716 -0.954700075383 -6.0520698186e-20
35351.9916392 43045.8688036 18.0 -0.297569766716 -0.954700075383 -6.0520698186e-20
35351.9916392 43045.8688036 12.0 -0.297569766716 -0.954700075383 -6.0520698186e-20
35351.9916392 43045.8688036 6.0 -0.297569766716 -0.954700075383 -6.0520698186e-20
35351.9916392 43045.8688036 1.5 -0.297569766716 -0.954700075383 -6.0520698186e-20
35350.8579664 43044.1835626 3.0 0.955254381611 -0.295785507441 4.31437924578e-19
35350.8579664 43044.1835626 9.0 0.955254381611 -0.295785507441 4.31437924578e-19
35350.8579664 43044.1835626 15.0 0.955254381611 -0.295785507441 4.31437924578e-19
35350.8579664 43044.1835626 21.0 0.955254381611 -0.295785507441 4.31437924578e-19
35350.8579664 43044.1835626 27.0 0.955254381611 -0.295785507441 4.31437924578e-19
35350.8579664 43044.1835626 33.0 0.955254381611 -0.295785507441 4.31437924578e-19
35350.8579664 43044.1835626 39.0 0.955254381611 -0.295785507441 4.31437924578e-19
35350.8579664 43044.1835626 43.5 0.955254381611 -0.295785507441 4.31437924578e-19
35349.2819359 43042.6122847 42.0 -0.294980540349 -0.955503260494 3.09127751784e-20
35349.2819359 43042.6122847 36.0 -0.294980540349 -0.955503260494 3.09127751784e-20
35349.2819359 43042.6122847 30.0 -0.294980540349 -0.955503260494 3.09127751784e-20
35349.2819359 43042.6122847 24.0 -0.294980540349 -0.955503260494 3.09127751784e-20
35349.2819359 43042.6122847 18.0 -0.294980540349 -0.955503260494 3.09127751784e-20
35349.2819359 43042.6122847 12.0 -0.294980540349 -0.955503260494 3.09127751784e-20
35349.2819359 43042.6122847 6.0 -0.294980540349 -0.955503260494 3.09127751784e-20
35349.2819359 43042.6122847 1.5 -0.294980540349 -0.955503260494 3.09127751784e-20
35348.8857779 43044.8307876 3.0 -0.954339600332 0.298723831051 4.2159881461e-19
35348.8857779 43044.8307876 9.0 -0.954339600332 0.298723831051 4.2159881461e-19
35348.8857779 43044.8307876 15.0 -0.954339600332 0.298723831051 4.2159881461e-19
35348.8857779 43044.8307876 21.0 -0.954339600332 0.298723831051 4.2159881461e-19
35348.8857779 43044.8307876 27.0 -0.954339600332 0.298723831051 4.2159881461e-19
35348.8857779 43044.8307876 33.0 -0.954339600332 0.298723831051 4.2159881461e-19
35348.8857779 43044.8307876 39.0 -0.954339600332 0.298723831051 4.2159881461e-19
35348.8857779 43044.8307876 43.5 -0.954339600332 0.298723831051 4.2159881461e-19
35348.8700936 43046.9081007 42.0 -0.291135220374 -0.956681913416 -1.02525629132e-19
35348.8700936 43046.9081007 36.0 -0.291135220374 -0.956681913416 -1.02525629132e-19
35348.8700936 43046.9081007 30.0 -0.291135220374 -0.956681913416 -1.02525629132e-19
35348.8700936 43046.9081007 24.0 -0.291135220374 -0.956681913416 -1.02525629132e-19
35348.8700936 43046.9081007 18.0 -0.291135220374 -0.956681913416 -1.02525629132e-19
35348.8700936 43046.9081007 12.0 -0.291135220374 -0.956681913416 -1.02525629132e-19
35348.8700936 43046.9081007 6.0 -0.291135220374 -0.956681913416 -1.02525629132e-19
35348.8700936 43046.9081007 1.5 -0.291135220374 -0.956681913416 -1.02525629132e-19
35347.4915386 43044.6202222 3.0 0.954741312026 -0.297437433944 -5.84172040872e-19
35347.4915386 43044.6202222 9.0 0.954741312026 -0.297437433944 -5.84172040872e-19
35347.4915386 43044.6202222 15.0 0.954741312026 -0.297437433944 -5.84172040872e-19
35347.4915386 43044.6202222 21.0 0.954741312026 -0.297437433944 -5.84172040872e-19
35347.4915386 43044.6202222 27.0 0.954741312026 -0.297437433944 -5.84172040872e-19
35347.4915386 43044.6202222 33.0 0.954741312026 -0.297437433944 -5.84172040872e-19
35347.4915386 43044.6202222 39.0 0.954741312026 -0.297437433944 -5.84172040872e-19
35347.4915386 43044.6202222 43.5 0.954741312026 -0.297437433944 -5.84172040872e-19
35343.8376073 43043.0110396 42.0 -0.293278107083 -0.956027171113 -3.43375122957e-19
35343.8376073 43043.0110396 36.0 -0.293278107083 -0.956027171113 -3.43375122957e-19
35343.8376073 43043.0110396 30.0 -0.293278107083 -0.956027171113 -3.43375122957e-19
35343.8376073 43043.0110396 24.0 -0.293278107083 -0.956027171113 -3.43375122957e-19
35343.8376073 43043.0110396 18.0 -0.293278107083 -0.956027171113 -3.43375122957e-19
35343.8376073 43043.0110396 12.0 -0.293278107083 -0.956027171113 -3.43375122957e-19
35343.8376073 43043.0110396 6.0 -0.293278107083 -0.956027171113 -3.43375122957e-19
35343.8376073 43043.0110396 1.5 -0.293278107083 -0.956027171113 -3.43375122957e-19
35339.080077 43044.4704955 42.0 -0.293278107083 -0.956027171113 -3.43375122957e-19
35339.080077 43044.4704955 36.0 -0.293278107083 -0.956027171113 -3.43375122957e-19
35339.080077 43044.4704955 30.0 -0.293278107083 -0.956027171113 -3.43375122957e-19
35339.080077 43044.4704955 24.0 -0.293278107083 -0.956027171113 -3.43375122957e-19
35339.080077 43044.4704955 18.0 -0.293278107083 -0.956027171113 -3.43375122957e-19
35339.080077 43044.4704955 12.0 -0.293278107083 -0.956027171113 -3.43375122957e-19
35339.080077 43044.4704955 6.0 -0.293278107083 -0.956027171113 -3.43375122957e-19
35339.080077 43044.4704955 1.5 -0.293278107083 -0.956027171113 -3.43375122957e-19
35338.571396 43049.507964 3.0 -0.954588585642 0.297927226287 -1.16112468138e-18
35338.571396 43049.507964 9.0 -0.954588585642 0.297927226287 -1.16112468138e-18
35338.571396 43049.507964 15.0 -0.954588585642 0.297927226287 -1.16112468138e-18
35338.571396 43049.507964 21.0 -0.954588585642 0.297927226287 -1.16112468138e-18
35338.571396 43049.507964 27.0 -0.954588585642 0.297927226287 -1.16112468138e-18
35338.571396 43049.507964 33.0 -0.954588585642 0.297927226287 -1.16112468138e-18
35338.571396 43049.507964 39.0 -0.954588585642 0.297927226287 -1.16112468138e-18
35338.571396 43049.507964 43.5 -0.954588585642 0.297927226287 -1.16112468138e-18
35337.4308147 43045.8534275 3.0 -0.954588585642 0.297927226287 -1.16112468138e-18
35337.4308147 43045.8534275 9.0 -0.954588585642 0.297927226287 -1.16112468138e-18
35337.4308147 43045.8534275 15.0 -0.954588585642 0.297927226287 -1.16112468138e-18
35337.4308147 43045.8534275 21.0 -0.954588585642 0.297927226287 -1.16112468138e-18
35337.4308147 43045.8534275 27.0 -0.954588585642 0.297927226287 -1.16112468138e-18
35337.4308147 43045.8534275 33.0 -0.954588585642 0.297927226287 -1.16112468138e-18
35337.4308147 43045.8534275 39.0 -0.954588585642 0.297927226287 -1.16112468138e-18
35337.4308147 43045.8534275 43.5 -0.954588585642 0.297927226287 -1.16112468138e-18
35341.6032441 43051.7259778 42.0 0.293389759892 0.955992912521 1.4743881352e-19
35341.6032441 43051.7259778 36.0 0.293389759892 0.955992912521 1.4743881352e-19
35341.6032441 43051.7259778 30.0 0.293389759892 0.955992912521 1.4743881352e-19
35341.6032441 43051.7259778 24.0 0.293389759892 0.955992912521 1.4743881352e-19
35341.6032441 43051.7259778 18.0 0.293389759892 0.955992912521 1.4743881352e-19
35341.6032441 43051.7259778 12.0 0.293389759892 0.955992912521 1.4743881352e-19
35341.6032441 43051.7259778 6.0 0.293389759892 0.955992912521 1.4743881352e-19
35341.6032441 43051.7259778 1.5 0.293389759892 0.955992912521 1.4743881352e-19
35344.1558841 43052.4879419 3.0 -0.955335655852 0.295522900396 -1.96586637558e-19
35344.1558841 43052.4879419 9.0 -0.955335655852 0.295522900396 -1.96586637558e-19
35344.1558841 43052.4879419 15.0 -0.955335655852 0.295522900396 -1.96586637558e-19
35344.1558841 43052.4879419 21.0 -0.955335655852 0.295522900396 -1.96586637558e-19
35344.1558841 43052.4879419 27.0 -0.955335655852 0.295522900396 -1.96586637558e-19
35344.1558841 43052.4879419 33.0 -0.955335655852 0.295522900396 -1.96586637558e-19
35344.1558841 43052.4879419 39.0 -0.955335655852 0.295522900396 -1.96586637558e-19
35344.1558841 43052.4879419 43.5 -0.955335655852 0.295522900396 -1.96586637558e-19
35342.732413 43054.4712671 42.0 -0.293930695914 -0.955826734298 -5.98404143638e-20
35342.732413 43054.4712671 36.0 -0.293930695914 -0.955826734298 -5.98404143638e-20
35342.732413 43054.4712671 30.0 -0.293930695914 -0.955826734298 -5.98404143638e-20
35342.732413 43054.4712671 24.0 -0.293930695914 -0.955826734298 -5.98404143638e-20
35342.732413 43054.4712671 18.0 -0.293930695914 -0.955826734298 -5.98404143638e-20
35342.732413 43054.4712671 12.0 -0.293930695914 -0.955826734298 -5.98404143638e-20
35342.732413 43054.4712671 6.0 -0.293930695914 -0.955826734298 -5.98404143638e-20
35342.732413 43054.4712671 1.5 -0.293930695914 -0.955826734298 -5.98404143638e-20
35342.6026369 43060.6752113 3.0 -0.95489966743 0.296928653285 4.35133358164e-19
35342.6026369 43060.6752113 9.0 -0.95489966743 0.296928653285 4.35133358164e-19
35342.6026369 43060.6752113 15.0 -0.95489966743 0.296928653285 4.35133358164e-19
35342.6026369 43060.6752113 21.0 -0.95489966743 0.296928653285 4.35133358164e-19
35342.6026369 43060.6752113 27.0 -0.95489966743 0.296928653285 4.35133358164e-19
35342.6026369 43060.6752113 33.0 -0.95489966743 0.296928653285 4.35133358164e-19
35342.6026369 43060.6752113 39.0 -0.95489966743 0.296928653285 4.35133358164e-19
35342.6026369 43060.6752113 43.5 -0.95489966743 0.296928653285 4.35133358164e-19
35341.2840142 43056.4346221 3.0 -0.95489966743 0.296928653285 4.35133358164e-19
35341.2840142 43056.4346221 9.0 -0.95489966743 0.296928653285 4.35133358164e-19
35341.2840142 43056.4346221 15.0 -0.95489966743 0.296928653285 4.35133358164e-19
35341.2840142 43056.4346221 21.0 -0.95489966743 0.296928653285 4.35133358164e-19
35341.2840142 43056.4346221 27.0 -0.95489966743 0.296928653285 4.35133358164e-19
35341.2840142 43056.4346221 33.0 -0.95489966743 0.296928653285 4.35133358164e-19
35341.2840142 43056.4346221 39.0 -0.95489966743 0.296928653285 4.35133358164e-19
35341.2840142 43056.4346221 43.5 -0.95489966743 0.296928653285 4.35133358164e-19
35346.3733275 43062.664497 42.0 0.294000698755 0.955805204595 -6.82225640534e-19
35346.3733275 43062.664497 36.0 0.294000698755 0.955805204595 -6.82225640534e-19
35346.3733275 43062.664497 30.0 0.294000698755 0.955805204595 -6.82225640534e-19
35346.3733275 43062.664497 24.0 0.294000698755 0.955805204595 -6.82225640534e-19
35346.3733275 43062.664497 18.0 0.294000698755 0.955805204595 -6.82225640534e-19
35346.3733275 43062.664497 12.0 0.294000698755 0.955805204595 -6.82225640534e-19
35346.3733275 43062.664497 6.0 0.294000698755 0.955805204595 -6.82225640534e-19
35346.3733275 43062.664497 1.5 0.294000698755 0.955805204595 -6.82225640534e-19
35351.2977886 43061.1497584 42.0 0.294000698755 0.955805204595 -6.82225640534e-19
35351.2977886 43061.1497584 36.0 0.294000698755 0.955805204595 -6.82225640534e-19
35351.2977886 43061.1497584 30.0 0.294000698755 0.955805204595 -6.82225640534e-19
35351.2977886 43061.1497584 24.0 0.294000698755 0.955805204595 -6.82225640534e-19
35351.2977886 43061.1497584 18.0 0.294000698755 0.955805204595 -6.82225640534e-19
35351.2977886 43061.1497584 12.0 0.294000698755 0.955805204595 -6.82225640534e-19
35351.2977886 43061.1497584 6.0 0.294000698755 0.955805204595 -6.82225640534e-19
35351.2977886 43061.1497584 1.5 0.294000698755 0.955805204595 -6.82225640534e-19
35352.262203 43056.9773286 3.0 0.954710825753 -0.297535273858 -9.08807663041e-19
35352.262203 43056.9773286 9.0 0.954710825753 -0.297535273858 -9.08807663041e-19
35352.262203 43056.9773286 15.0 0.954710825753 -0.297535273858 -9.08807663041e-19
35352.262203 43056.9773286 21.0 0.954710825753 -0.297535273858 -9.08807663041e-19
35352.262203 43056.9773286 27.0 0.954710825753 -0.297535273858 -9.08807663041e-19
35352.262203 43056.9773286 33.0 0.954710825753 -0.297535273858 -9.08807663041e-19
35352.262203 43056.9773286 39.0 0.954710825753 -0.297535273858 -9.08807663041e-19
35352.262203 43056.9773286 43.5 0.954710825753 -0.297535273858 -9.08807663041e-19
35353.258125 43060.1729748 3.0 0.954710825753 -0.297535273858 -9.08807663041e-19
35353.258125 43060.1729748 9.0 0.954710825753 -0.297535273858 -9.08807663041e-19
35353.258125 43060.1729748 15.0 0.954710825753 -0.297535273858 -9.08807663041e-19
35353.258125 43060.1729748 21.0 0.954710825753 -0.297535273858 -9.08807663041e-19
35353.258125 43060.1729748 27.0 0.954710825753 -0.297535273858 -9.08807663041e-19
35353.258125 43060.1729748 33.0 0.954710825753 -0.297535273858 -9.08807663041e-19
35353.258125 43060.1729748 39.0 0.954710825753 -0.297535273858 -9.08807663041e-19
35353.258125 43060.1729748 43.5 0.954710825753 -0.297535273858 -9.08807663041e-19
35352.5926977 43053.7498144 42.0 0.292340303833 0.956314355615 1.68185130409e-19
35352.5926977 43053.7498144 36.0 0.292340303833 0.956314355615 1.68185130409e-19
35352.5926977 43053.7498144 30.0 0.292340303833 0.956314355615 1.68185130409e-19
35352.5926977 43053.7498144 24.0 0.292340303833 0.956314355615 1.68185130409e-19
35352.5926977 43053.7498144 18.0 0.292340303833 0.956314355615 1.68185130409e-19
35352.5926977 43053.7498144 12.0 0.292340303833 0.956314355615 1.68185130409e-19
35352.5926977 43053.7498144 6.0 0.292340303833 0.956314355615 1.68185130409e-19
35352.5926977 43053.7498144 1.5 0.292340303833 0.956314355615 1.68185130409e-19
35354.886163 43056.8173064 3.0 -0.954630581239 0.297792634838 2.27753187479e-19
35354.886163 43056.8173064 9.0 -0.954630581239 0.297792634838 2.27753187479e-19
35354.886163 43056.8173064 15.0 -0.954630581239 0.297792634838 2.27753187479e-19
35354.886163 43056.8173064 21.0 -0.954630581239 0.297792634838 2.27753187479e-19
35354.886163 43056.8173064 27.0 -0.954630581239 0.297792634838 2.27753187479e-19
35354.886163 43056.8173064 33.0 -0.954630581239 0.297792634838 2.27753187479e-19
35354.886163 43056.8173064 39.0 -0.954630581239 0.297792634838 2.27753187479e-19
35354.886163 43056.8173064 43.5 -0.954630581239 0.297792634838 2.27753187479e-19
35353.9013686 43053.6603618 3.0 -0.954630581239 0.297792634838 2.27753187479e-19
35353.9013686 43053.6603618 9.0 -0.954630581239 0.297792634838 2.27753187479e-19
35353.9013686 43053.6603618 15.0 -0.954630581239 0.297792634838 2.27753187479e-19
35353.9013686 43053.6603618 21.0 -0.954630581239 0.297792634838 2.27753187479e-19
35353.9013686 43053.6603618 27.0 -0.954630581239 0.297792634838 2.27753187479e-19
35353.9013686 43053.6603618 33.0 -0.954630581239 0.297792634838 2.27753187479e-19
35353.9013686 43053.6603618 39.0 -0.954630581239 0.297792634838 2.27753187479e-19
35353.9013686 43053.6603618 43.5 -0.954630581239 0.297792634838 2.27753187479e-19
35362.1162211 43057.7480682 42.0 0.293230105148 0.95604189523 -3.46015394732e-19
35362.1162211 43057.7480682 36.0 0.293230105148 0.95604189523 -3.46015394732e-19
35362.1162211 43057.7480682 30.0 0.293230105148 0.95604189523 -3.46015394732e-19
35362.1162211 43057.7480682 24.0 0.293230105148 0.95604189523 -3.46015394732e-19
35362.1162211 43057.7480682 18.0 0.293230105148 0.95604189523 -3.46015394732e-19
35362.1162211 43057.7480682 12.0 0.293230105148 0.95604189523 -3.46015394732e-19
35362.1162211 43057.7480682 6.0 0.293230105148 0.95604189523 -3.46015394732e-19
35362.1162211 43057.7480682 1.5 0.293230105148 0.95604189523 -3.46015394732e-19
35357.5200575 43059.1577696 42.0 0.293230105148 0.95604189523 -3.46015394732e-19
35357.5200575 43059.1577696 36.0 0.293230105148 0.95604189523 -3.46015394732e-19
35357.5200575 43059.1577696 30.0 0.293230105148 0.95604189523 -3.46015394732e-19
35357.5200575 43059.1577696 24.0 0.293230105148 0.95604189523 -3.46015394732e-19
35357.5200575 43059.1577696 18.0 0.293230105148 0.95604189523 -3.46015394732e-19
35357.5200575 43059.1577696 12.0 0.293230105148 0.95604189523 -3.46015394732e-19
35357.5200575 43059.1577696 6.0 0.293230105148 0.95604189523 -3.46015394732e-19
35357.5200575 43059.1577696 1.5 0.293230105148 0.95604189523 -3.46015394732e-19
35386.9665365 43007.7395891 3.0 0.95445451657 -0.298356457611 3.523363973e-19
35386.9665365 43007.7395891 9.0 0.95445451657 -0.298356457611 3.523363973e-19
35386.9665365 43007.7395891 15.0 0.95445451657 -0.298356457611 3.523363973e-19
35386.9665365 43007.7395891 21.0 0.95445451657 -0.298356457611 3.523363973e-19
35386.9665365 43007.7395891 27.0 0.95445451657 -0.298356457611 3.523363973e-19
35386.9665365 43007.7395891 33.0 0.95445451657 -0.298356457611 3.523363973e-19
35386.9665365 43007.7395891 39.0 0.95445451657 -0.298356457611 3.523363973e-19
35386.9665365 43007.7395891 43.5 0.95445451657 -0.298356457611 3.523363973e-19
35385.6979878 43003.6814499 3.0 0.95445451657 -0.298356457611 3.523363973e-19
35385.6979878 43003.6814499 9.0 0.95445451657 -0.298356457611 3.523363973e-19
35385.6979878 43003.6814499 15.0 0.95445451657 -0.298356457611 3.523363973e-19
35385.6979878 43003.6814499 21.0 0.95445451657 -0.298356457611 3.523363973e-19
35385.6979878 43003.6814499 27.0 0.95445451657 -0.298356457611 3.523363973e-19
35385.6979878 43003.6814499 33.0 0.95445451657 -0.298356457611 3.523363973e-19
35385.6979878 43003.6814499 39.0 0.95445451657 -0.298356457611 3.523363973e-19
35385.6979878 43003.6814499 43.5 0.95445451657 -0.298356457611 3.523363973e-19
35383.0195177 43003.1821824 42.0 -0.292826782334 -0.956165506358 -1.37421261742e-19
35383.0195177 43003.1821824 36.0 -0.292826782334 -0.956165506358 -1.37421261742e-19
35383.0195177 43003.1821824 30.0 -0.292826782334 -0.956165506358 -1.37421261742e-19
35383.0195177 43003.1821824 24.0 -0.292826782334 -0.956165506358 -1.37421261742e-19
35383.0195177 43003.1821824 18.0 -0.292826782334 -0.956165506358 -1.37421261742e-19
35383.0195177 43003.1821824 12.0 -0.292826782334 -0.956165506358 -1.37421261742e-19
35383.0195177 43003.1821824 6.0 -0.292826782334 -0.956165506358 -1.37421261742e-19
35383.0195177 43003.1821824 1.5 -0.292826782334 -0.956165506358 -1.37421261742e-19
35380.1775355 43002.0774241 3.0 0.955190672489 -0.295991180934 -1.93291079878e-19
35380.1775355 43002.0774241 9.0 0.955190672489 -0.295991180934 -1.93291079878e-19
35380.1775355 43002.0774241 15.0 0.955190672489 -0.295991180934 -1.93291079878e-19
35380.1775355 43002.0774241 21.0 0.955190672489 -0.295991180934 -1.93291079878e-19
35380.1775355 43002.0774241 27.0 0.955190672489 -0.295991180934 -1.93291079878e-19
35380.1775355 43002.0774241 33.0 0.955190672489 -0.295991180934 -1.93291079878e-19
35380.1775355 43002.0774241 39.0 0.955190672489 -0.295991180934 -1.93291079878e-19
35380.1775355 43002.0774241 43.5 0.955190672489 -0.295991180934 -1.93291079878e-19
35381.7067509 42999.6296896 42.0 0.294642601491 0.955607522672 -1.40019426893e-19
35381.7067509 42999.6296896 36.0 0.294642601491 0.955607522672 -1.40019426893e-19
35381.7067509 42999.6296896 30.0 0.294642601491 0.955607522672 -1.40019426893e-19
35381.7067509 42999.6296896 24.0 0.294642601491 0.955607522672 -1.40019426893e-19
35381.7067509 42999.6296896 18.0 0.294642601491 0.955607522672 -1.40019426893e-19
35381.7067509 42999.6296896 12.0 0.294642601491 0.955607522672 -1.40019426893e-19
35381.7067509 42999.6296896 6.0 0.294642601491 0.955607522672 -1.40019426893e-19
35381.7067509 42999.6296896 1.5 0.294642601491 0.955607522672 -1.40019426893e-19
35382.9223137 42996.105053 3.0 0.955104513022 -0.296269082431 -3.66325675469e-19
35382.9223137 42996.105053 9.0 0.955104513022 -0.296269082431 -3.66325675469e-19
35382.9223137 42996.105053 15.0 0.955104513022 -0.296269082431 -3.66325675469e-19
35382.9223137 42996.105053 21.0 0.955104513022 -0.296269082431 -3.66325675469e-19
35382.9223137 42996.105053 27.0 0.955104513022 -0.296269082431 -3.66325675469e-19
35382.9223137 42996.105053 33.0 0.955104513022 -0.296269082431 -3.66325675469e-19
35382.9223137 42996.105053 39.0 0.955104513022 -0.296269082431 -3.66325675469e-19
35382.9223137 42996.105053 43.5 0.955104513022 -0.296269082431 -3.66325675469e-19
35381.9653389 42993.0199828 3.0 0.955104513022 -0.296269082431 -3.66325675469e-19
