-7206.39762517 -7334.65726731 67.4999979492 0.766044442859 0.642787609996 0.0
-7201.94772363 -7344.64318673 67.4999958984 0.642787610004 -0.766044442853 0.0
-7201.94772363 -7344.64318673 58.4999958984 0.642787610004 -0.766044442853 0.0
-7201.94772363 -7344.64318673 49.4999958984 0.642787610004 -0.766044442853 0.0
-7201.94772363 -7344.64318673 40.4999958984 0.642787610004 -0.766044442853 0.0
-7201.94772363 -7344.64318673 31.4999958984 0.642787610004 -0.766044442853 0.0
-7201.94772363 -7344.64318673 22.4999958984 0.642787610004 -0.766044442853 0.0
-7201.94772363 -7344.64318673 13.4999958984 0.642787610004 -0.766044442853 0.0
-7201.94772363 -7344.64318673 4.4999979492 0.642787610004 -0.766044442853 0.0
-7200.70929648 -7350.77070554 4.5 0.766044443163 0.642787609635 0.0
-7200.70929648 -7350.77070554 13.5 0.766044443163 0.642787609635 0.0
-7200.70929648 -7350.77070554 22.5 0.766044443163 0.642787609635 0.0
-7200.70929648 -7350.77070554 31.5 0.766044443163 0.642787609635 0.0
-7200.70929648 -7350.77070554 40.5 0.766044443163 0.642787609635 0.0
-7200.70929648 -7350.77070554 49.5 0.766044443163 0.642787609635 0.0
-7200.70929648 -7350.77070554 58.5 0.766044443163 0.642787609635 0.0
-7200.70929648 -7350.77070554 67.4999979492 0.766044443163 0.642787609635 0.0
-7203.92323368 -7346.94048433 4.5 0.766044443163 0.642787609635 0.0
-7203.92323368 -7346.94048433 13.5 0.766044443163 0.642787609635 0.0
-7203.92323368 -7346.94048433 22.5 0.766044443163 0.642787609635 0.0
-7203.92323368 -7346.94048433 31.5 0.766044443163 0.642787609635 0.0
-7203.92323368 -7346.94048433 40.5 0.766044443163 0.642787609635 0.0
-7203.92323368 -7346.94048433 49.5 0.766044443163 0.642787609635 0.0
-7203.92323368 -7346.94048433 58.5 0.766044443163 0.642787609635 0.0
-7203.92323368 -7346.94048433 67.4999979492 0.766044443163 0.642787609635 0.0
-7195.53270498 -7352.28830825 67.4999958984 -0.642787610004 0.766044442853 0.0
-7195.53270498 -7352.28830825 58.4999958984 -0.642787610004 0.766044442853 0.0
-7195.53270498 -7352.28830825 49.4999958984 -0.642787610004 0.766044442853 0.0
-7195.53270498 -7352.28830825 40.4999958984 -0.642787610004 0.766044442853 0.0
-7195.53270498 -7352.28830825 31.4999958984 -0.642787610004 0.766044442853 0.0
-7195.53270498 -7352.28830825 22.4999958984 -0.642787610004 0.766044442853 0.0
-7195.53270498 -7352.28830825 13.4999958984 -0.642787610004 0.766044442853 0.0
-7195.53270498 -7352.28830825 4.4999979492 -0.642787610004 0.766044442853 0.0
-7190.32793684 -7353.8083761 4.5 0.766044443673 0.642787609026 7.84816555225e-20
-7190.32793684 -7353.8083761 13.5 0.766044443673 0.642787609026 7.84816555225e-20
-7190.32793684 -7353.8083761 22.5 0.766044443673 0.642787609026 7.84816555225e-20
-7190.32793684 -7353.8083761 31.5 0.766044443673 0.642787609026 7.84816555225e-20
-7190.32793684 -7353.8083761 40.5 0.766044443673 0.642787609026 7.84816555225e-20
-7190.32793684 -7353.8083761 49.5 0.766044443673 0.642787609026 7.84816555225e-20
-7190.32793684 -7353.8083761 58.5 0.766044443673 0.642787609026 7.84816555225e-20
-7190.32793684 -7353.8083761 67.4999979492 0.766044443673 0.642787609026 7.84816555225e-20
-7186.47120742 -7358.40464725 4.5 0.766044443673 0.642787609026 7.84816555225e-20
-7186.47120742 -7358.40464725 13.5 0.766044443673 0.642787609026 7.84816555225e-20
-7186.47120742 -7358.40464725 22.5 0.766044443673 0.642787609026 7.84816555225e-20
-7186.47120742 -7358.40464725 31.5 0.766044443673 0.642787609026 7.84816555225e-20
-7186.47120742 -7358.40464725 40.5 0.766044443673 0.642787609026 7.84816555225e-20
-7186.47120742 -7358.40464725 49.5 0.766044443673 0.642787609026 7.84816555225e-20
-7186.47120742 -7358.40464725 58.5 0.766044443673 0.642787609026 7.84816555225e-20
-7186.47120742 -7358.40464725 67.4999979492 0.766044443673 0.642787609026 7.84816555225e-20
-7191.25359711 -7364.38872133 67.4999958984 0.642787609925 -0.766044442919 1.88895136825e-20
-7191.25359711 -7364.38872133 58.4999958984 0.642787609925 -0.766044442919 1.88895136825e-20
-7191.25359711 -7364.38872133 49.4999958984 0.642787609925 -0.766044442919 1.88895136825e-20
-7191.25359711 -7364.38872133 40.4999958984 0.642787609925 -0.766044442919 1.88895136825e-20
-7191.25359711 -7364.38872133 31.4999958984 0.642787609925 -0.766044442919 1.88895136825e-20
-7191.25359711 -7364.38872133 22.4999958984 0.642787609925 -0.766044442919 1.88895136825e-20
-7191.25359711 -7364.38872133 13.4999958984 0.642787609925 -0.766044442919 1.88895136825e-20
-7191.25359711 -7364.38872133 4.4999979492 0.642787609925 -0.766044442919 1.88895136825e-20
-7186.65732597 -7360.5319919 67.4999958984 0.642787609925 -0.766044442919 1.88895136825e-20
-7186.65732597 -7360.5319919 58.4999958984 0.642787609925 -0.766044442919 1.88895136825e-20
-7186.65732597 -7360.5319919 49.4999958984 0.642787609925 -0.766044442919 1.88895136825e-20
-7186.65732597 -7360.5319919 40.4999958984 0.642787609925 -0.766044442919 1.88895136825e-20
-7186.65732597 -7360.5319919 31.4999958984 0.642787609925 -0.766044442919 1.88895136825e-20
-7186.65732597 -7360.5319919 22.4999958984 0.642787609925 -0.766044442919 1.88895136825e-20
-7186.65732597 -7360.5319919 13.4999958984 0.642787609925 -0.766044442919 1.88895136825e-20
-7186.65732597 -7360.5319919 4.4999979492 0.642787609925 -0.766044442919 1.88895136825e-20
-7196.64325213 -7364.98189506 4.5 -0.766044443322 -0.642787609444 0.0
-7196.64325213 -7364.98189506 13.5 -0.766044443322 -0.642787609444 0.0
-7196.64325213 -7364.98189506 22.5 -0.766044443322 -0.642787609444 0.0
-7196.64325213 -7364.98189506 31.5 -0.766044443322 -0.642787609444 0.0
-7196.64325213 -7364.98189506 40.5 -0.766044443322 -0.642787609444 0.0
-7196.64325213 -7364.98189506 49.5 -0.766044443322 -0.642787609444 0.0
-7196.64325213 -7364.98189506 58.5 -0.766044443322 -0.642787609444 0.0
-7196.64325213 -7364.98189506 67.4999979492 -0.766044443322 -0.642787609444 0.0
-7202.00473051 -7365.57753392 67.4999958984 0.64278760955 -0.766044443234 -2.47725041586e-20
-7202.00473051 -7365.57753392 58.4999958984 0.64278760955 -0.766044443234 -2.47725041586e-20
-7202.00473051 -7365.57753392 49.4999958984 0.64278760955 -0.766044443234 -2.47725041586e-20
-7202.00473051 -7365.57753392 40.4999958984 0.64278760955 -0.766044443234 -2.47725041586e-20
-7202.00473051 -7365.57753392 31.4999958984 0.64278760955 -0.766044443234 -2.47725041586e-20
-7202.00473051 -7365.57753392 22.4999958984 0.64278760955 -0.766044443234 -2.47725041586e-20
-7202.00473051 -7365.57753392 13.4999958984 0.64278760955 -0.766044443234 -2.47725041586e-20
-7202.00473051 -7365.57753392 4.4999979492 0.64278760955 -0.766044443234 -2.47725041586e-20
-7205.83495646 -7368.7914751 67.4999958984 0.64278760955 -0.766044443234 -2.47725041586e-20
-7205.83495646 -7368.7914751 58.4999958984 0.64278760955 -0.766044443234 -2.47725041586e-20
-7205.83495646 -7368.7914751 49.4999958984 0.64278760955 -0.766044443234 -2.47725041586e-20
-7205.83495646 -7368.7914751 40.4999958984 0.64278760955 -0.766044443234 -2.47725041586e-20
-7205.83495646 -7368.7914751 31.4999958984 0.64278760955 -0.766044443234 -2.47725041586e-20
-7205.83495646 -7368.7914751 22.4999958984 0.64278760955 -0.766044443234 -2.47725041586e-20
-7205.83495646 -7368.7914751 13.4999958984 0.64278760955 -0.766044443234 -2.47725041586e-20
-7205.83495646 -7368.7914751 4.4999979492 0.64278760955 -0.766044443234 -2.47725041586e-20
-7204.28838315 -7371.39692167 4.5 0.766044443322 0.642787609444 -0.0
-7204.28838315 -7371.39692167 13.5 0.766044443322 0.642787609444 -0.0
-7204.28838315 -7371.39692167 22.5 0.766044443322 0.642787609444 -0.0
-7204.28838315 -7371.39692167 31.5 0.766044443322 0.642787609444 -0.0
-7204.28838315 -7371.39692167 40.5 0.766044443322 0.642787609444 -0.0
-7204.28838315 -7371.39692167 49.5 0.766044443322 0.642787609444 -0.0
-7204.28838315 -7371.39692167 58.5 0.766044443322 0.642787609444 -0.0
-7204.28838315 -7371.39692167 67.4999979492 0.766044443322 0.642787609444 -0.0
-7205.80844901 -7376.60169219 67.4999958984 0.642787609167 -0.766044443555 -2.17899551429e-20
-7205.80844901 -7376.60169219 58.4999958984 0.642787609167 -0.766044443555 -2.17899551429e-20
-7205.80844901 -7376.60169219 49.4999958984 0.642787609167 -0.766044443555 -2.17899551429e-20
-7205.80844901 -7376.60169219 40.4999958984 0.642787609167 -0.766044443555 -2.17899551429e-20
-7205.80844901 -7376.60169219 31.4999958984 0.642787609167 -0.766044443555 -2.17899551429e-20
-7205.80844901 -7376.60169219 22.4999958984 0.642787609167 -0.766044443555 -2.17899551429e-20
-7205.80844901 -7376.60169219 13.4999958984 0.642787609167 -0.766044443555 -2.17899551429e-20
-7205.80844901 -7376.60169219 4.4999979492 0.642787609167 -0.766044443555 -2.17899551429e-20
-7210.40471066 -7380.45841364 67.4999958984 0.642787609167 -0.766044443555 -2.17899551429e-20
-7210.40471066 -7380.45841364 58.4999958984 0.642787609167 -0.766044443555 -2.17899551429e-20
-7210.40471066 -7380.45841364 49.4999958984 0.642787609167 -0.766044443555 -2.17899551429e-20
-7210.40471066 -7380.45841364 40.4999958984 0.642787609167 -0.766044443555 -2.17899551429e-20
-7210.40471066 -7380.45841364 31.4999958984 0.642787609167 -0.766044443555 -2.17899551429e-20
-7210.40471066 -7380.45841364 22.4999958984 0.642787609167 -0.766044443555 -2.17899551429e-20
-7210.40471066 -7380.45841364 13.4999958984 0.642787609167 -0.766044443555 -2.17899551429e-20
-7210.40471066 -7380.45841364 4.4999979492 0.642787609167 -0.766044443555 -2.17899551429e-20
-7216.38877524 -7375.67601598 4.5 -0.766044442919 -0.642787609925 -5.40589217912e-21
-7216.38877524 -7375.67601598 13.5 -0.766044442919 -0.642787609925 -5.40589217912e-21
-7216.38877524 -7375.67601598 22.5 -0.766044442919 -0.642787609925 -5.40589217912e-21
-7216.38877524 -7375.67601598 31.5 -0.766044442919 -0.642787609925 -5.40589217912e-21
-7216.38877524 -7375.67601598 40.5 -0.766044442919 -0.642787609925 -5.40589217912e-21
-7216.38877524 -7375.67601598 49.5 -0.766044442919 -0.642787609925 -5.40589217912e-21
-7216.38877524 -7375.67601598 58.5 -0.766044442919 -0.642787609925 -5.40589217912e-21
-7216.38877524 -7375.67601598 67.4999979492 -0.766044442919 -0.642787609925 -5.40589217912e-21
-7212.53204581 -7380.27228712 4.5 -0.766044442919 -0.642787609925 -5.40589217912e-21
-7212.53204581 -7380.27228712 13.5 -0.766044442919 -0.642787609925 -5.40589217912e-21
-7212.53204581 -7380.27228712 22.5 -0.766044442919 -0.642787609925 -5.40589217912e-21
-7212.53204581 -7380.27228712 31.5 -0.766044442919 -0.642787609925 -5.40589217912e-21
-7212.53204581 -7380.27228712 40.5 -0.766044442919 -0.642787609925 -5.40589217912e-21
-7212.53204581 -7380.27228712 49.5 -0.766044442919 -0.642787609925 -5.40589217912e-21
-7212.53204581 -7380.27228712 58.5 -0.766044442919 -0.642787609925 -5.40589217912e-21
-7212.53204581 -7380.27228712 67.4999979492 -0.766044442919 -0.642787609925 -5.40589217912e-21
-7160.32720012 -7357.36555917 55.499996582 0.342020142779 0.939692620985 0.0
-7160.32720012 -7357.36555917 46.499996582 0.342020142779 0.939692620985 0.0
-7160.32720012 -7357.36555917 37.499996582 0.342020142779 0.939692620985 0.0
-7160.32720012 -7357.36555917 28.499996582 0.342020142779 0.939692620985 0.0
-7160.32720012 -7357.36555917 19.499996582 0.342020142779 0.939692620985 0.0
-7160.32720012 -7357.36555917 10.499996582 0.342020142779 0.939692620985 0.0
-7160.32720012 -7357.36555917 2.999998291 0.342020142779 0.939692620985 0.0
-7155.63982569 -7353.22928747 4.5 -0.93969262092 0.342020142956 0.0
-7155.63982569 -7353.22928747 13.5 -0.93969262092 0.342020142956 0.0
-7155.63982569 -7353.22928747 22.5 -0.93969262092 0.342020142956 0.0
-7155.63982569 -7353.22928747 31.5 -0.93969262092 0.342020142956 0.0
-7155.63982569 -7353.22928747 40.5 -0.93969262092 0.342020142956 0.0
-7155.63982569 -7353.22928747 49.5 -0.93969262092 0.342020142956 0.0
-7155.63982569 -7353.22928747 56.999998291 -0.93969262092 0.342020142956 0.0
-7157.34992648 -7357.9277508 4.5 -0.93969262092 0.342020142956 0.0
-7157.34992648 -7357.9277508 13.5 -0.93969262092 0.342020142956 0.0
-7157.34992648 -7357.9277508 22.5 -0.93969262092 0.342020142956 0.0
-7157.34992648 -7357.9277508 31.5 -0.93969262092 0.342020142956 0.0
-7157.34992648 -7357.9277508 40.5 -0.93969262092 0.342020142956 0.0
-7157.34992648 -7357.9277508 49.5 -0.93969262092 0.342020142956 0.0
-7157.34992648 -7357.9277508 56.999998291 -0.93969262092 0.342020142956 0.0
-7156.91383894 -7347.98742638 55.499996582 -0.342020142779 -0.939692620985 -4.04931483297e-22
-7156.91383894 -7347.98742638 46.499996582 -0.342020142779 -0.939692620985 -4.04931483297e-22
-7156.91383894 -7347.98742638 37.499996582 -0.342020142779 -0.939692620985 -4.04931483297e-22
-7156.91383894 -7347.98742638 28.499996582 -0.342020142779 -0.939692620985 -4.04931483297e-22
-7156.91383894 -7347.98742638 19.499996582 -0.342020142779 -0.939692620985 -4.04931483297e-22
-7156.91383894 -7347.98742638 10.499996582 -0.342020142779 -0.939692620985 -4.04931483297e-22
-7156.91383894 -7347.98742638 2.999998291 -0.342020142779 -0.939692620985 -4.04931483297e-22
-7158.19980563 -7342.71993102 4.5 -0.939692620881 0.342020143066 -4.02990092183e-22
-7158.19980563 -7342.71993102 13.5 -0.939692620881 0.342020143066 -4.02990092183e-22
-7158.19980563 -7342.71993102 22.5 -0.939692620881 0.342020143066 -4.02990092183e-22
-7158.19980563 -7342.71993102 31.5 -0.939692620881 0.342020143066 -4.02990092183e-22
-7158.19980563 -7342.71993102 40.5 -0.939692620881 0.342020143066 -4.02990092183e-22
-7158.19980563 -7342.71993102 49.5 -0.939692620881 0.342020143066 -4.02990092183e-22
-7158.19980563 -7342.71993102 56.999998291 -0.939692620881 0.342020143066 -4.02990092183e-22
-7156.14768489 -7337.08177562 4.5 -0.939692620881 0.342020143066 -4.02990092183e-22
-7156.14768489 -7337.08177562 13.5 -0.939692620881 0.342020143066 -4.02990092183e-22
-7156.14768489 -7337.08177562 22.5 -0.939692620881 0.342020143066 -4.02990092183e-22
-7156.14768489 -7337.08177562 31.5 -0.939692620881 0.342020143066 -4.02990092183e-22
-7156.14768489 -7337.08177562 40.5 -0.939692620881 0.342020143066 -4.02990092183e-22
-7156.14768489 -7337.08177562 49.5 -0.939692620881 0.342020143066 -4.02990092183e-22
-7156.14768489 -7337.08177562 56.999998291 -0.939692620881 0.342020143066 -4.02990092183e-22
-7151.39322087 -7337.20535094 55.499996582 0.342020142816 0.939692620971 6.72980415468e-21
-7151.39322087 -7337.20535094 46.499996582 0.342020142816 0.939692620971 6.72980415468e-21
-7151.39322087 -7337.20535094 37.499996582 0.342020142816 0.939692620971 6.72980415468e-21
-7151.39322087 -7337.20535094 28.499996582 0.342020142816 0.939692620971 6.72980415468e-21
-7151.39322087 -7337.20535094 19.499996582 0.342020142816 0.939692620971 6.72980415468e-21
-7151.39322087 -7337.20535094 10.499996582 0.342020142816 0.939692620971 6.72980415468e-21
-7151.39322087 -7337.20535094 2.999998291 0.342020142816 0.939692620971 6.72980415468e-21
-7145.75507129 -7339.25746956 55.499996582 0.342020142816 0.939692620971 6.72980415468e-21
-7145.75507129 -7339.25746956 46.499996582 0.342020142816 0.939692620971 6.72980415468e-21
-7145.75507129 -7339.25746956 37.499996582 0.342020142816 0.939692620971 6.72980415468e-21
-7145.75507129 -7339.25746956 28.499996582 0.342020142816 0.939692620971 6.72980415468e-21
-7145.75507129 -7339.25746956 19.499996582 0.342020142816 0.939692620971 6.72980415468e-21
-7145.75507129 -7339.25746956 10.499996582 0.342020142816 0.939692620971 6.72980415468e-21
-7145.75507129 -7339.25746956 2.999998291 0.342020142816 0.939692620971 6.72980415468e-21
-7145.36562215 -7342.60239237 4.5 0.939692621076 -0.34202014253 0.0
-7145.36562215 -7342.60239237 13.5 0.939692621076 -0.34202014253 0.0
-7145.36562215 -7342.60239237 22.5 0.939692621076 -0.34202014253 0.0
-7145.36562215 -7342.60239237 31.5 0.939692621076 -0.34202014253 0.0
-7145.36562215 -7342.60239237 40.5 0.939692621076 -0.34202014253 0.0
-7145.36562215 -7342.60239237 49.5 0.939692621076 -0.34202014253 0.0
-7145.36562215 -7342.60239237 56.999998291 0.939692621076 -0.34202014253 0.0
-7141.22934066 -7347.28976707 55.499996582 0.342020143181 0.939692620839 -5.32354037852e-21
-7141.22934066 -7347.28976707 46.499996582 0.342020143181 0.939692620839 -5.32354037852e-21
-7141.22934066 -7347.28976707 37.499996582 0.342020143181 0.939692620839 -5.32354037852e-21
-7141.22934066 -7347.28976707 28.499996582 0.342020143181 0.939692620839 -5.32354037852e-21
-7141.22934066 -7347.28976707 19.499996582 0.342020143181 0.939692620839 -5.32354037852e-21
-7141.22934066 -7347.28976707 10.499996582 0.342020143181 0.939692620839 -5.32354037852e-21
-7141.22934066 -7347.28976707 2.999998291 0.342020143181 0.939692620839 -5.32354037852e-21
-7145.92780835 -7345.57966468 55.499996582 0.342020143181 0.939692620839 -5.32354037852e-21
-7145.92780835 -7345.57966468 46.499996582 0.342020143181 0.939692620839 -5.32354037852e-21
-7145.92780835 -7345.57966468 37.499996582 0.342020143181 0.939692620839 -5.32354037852e-21
-7145.92780835 -7345.57966468 28.499996582 0.342020143181 0.939692620839 -5.32354037852e-21
-7145.92780835 -7345.57966468 19.499996582 0.342020143181 0.939692620839 -5.32354037852e-21
-7145.92780835 -7345.57966468 10.499996582 0.342020143181 0.939692620839 -5.32354037852e-21
-7145.92780835 -7345.57966468 2.999998291 0.342020143181 0.939692620839 -5.32354037852e-21
-7135.98748063 -7346.01575673 4.5 -0.939692621076 0.34202014253 0.0
-7135.98748063 -7346.01575673 13.5 -0.939692621076 0.34202014253 0.0
-7135.98748063 -7346.01575673 22.5 -0.939692621076 0.34202014253 0.0
-7135.98748063 -7346.01575673 31.5 -0.939692621076 0.34202014253 0.0
-7135.98748063 -7346.01575673 40.5 -0.939692621076 0.34202014253 0.0
-7135.98748063 -7346.01575673 49.5 -0.939692621076 0.34202014253 0.0
-7135.98748063 -7346.01575673 56.999998291 -0.939692621076 0.34202014253 0.0
-7130.71998634 -7344.72979295 55.499996582 0.342020143515 0.939692620717 -1.25759373505e-21
-7130.71998634 -7344.72979295 46.499996582 0.342020143515 0.939692620717 -1.25759373505e-21
-7130.71998634 -7344.72979295 37.499996582 0.342020143515 0.939692620717 -1.25759373505e-21
-7130.71998634 -7344.72979295 28.499996582 0.342020143515 0.939692620717 -1.25759373505e-21
-7130.71998634 -7344.72979295 19.499996582 0.342020143515 0.939692620717 -1.25759373505e-21
-7130.71998634 -7344.72979295 10.499996582 0.342020143515 0.939692620717 -1.25759373505e-21
-7130.71998634 -7344.72979295 2.999998291 0.342020143515 0.939692620717 -1.25759373505e-21
-7125.08182511 -7346.78191581 55.499996582 0.342020143515 0.939692620717 -1.25759373505e-21
-7125.08182511 -7346.78191581 46.499996582 0.342020143515 0.939692620717 -1.25759373505e-21
-7125.08182511 -7346.78191581 37.499996582 0.342020143515 0.939692620717 -1.25759373505e-21
-7125.08182511 -7346.78191581 28.499996582 0.342020143515 0.939692620717 -1.25759373505e-21
-7125.08182511 -7346.78191581 19.499996582 0.342020143515 0.939692620717 -1.25759373505e-21
-7125.08182511 -7346.78191581 10.499996582 0.342020143515 0.939692620717 -1.25759373505e-21
-7125.08182511 -7346.78191581 2.999998291 0.342020143515 0.939692620717 -1.25759373505e-21
-7126.23145478 -7354.35545917 4.5 0.939692620881 -0.342020143066 1.00470160711e-20
-7126.23145478 -7354.35545917 13.5 0.939692620881 -0.342020143066 1.00470160711e-20
-7126.23145478 -7354.35545917 22.5 0.939692620881 -0.342020143066 1.00470160711e-20
-7126.23145478 -7354.35545917 31.5 0.939692620881 -0.342020143066 1.00470160711e-20
-7126.23145478 -7354.35545917 40.5 0.939692620881 -0.342020143066 1.00470160711e-20
-7126.23145478 -7354.35545917 49.5 0.939692620881 -0.342020143066 1.00470160711e-20
-7126.23145478 -7354.35545917 56.999998291 0.939692620881 -0.342020143066 1.00470160711e-20
-7124.17933404 -7348.71730377 4.5 0.939692620881 -0.342020143066 1.00470160711e-20
-7124.17933404 -7348.71730377 13.5 0.939692620881 -0.342020143066 1.00470160711e-20
-7124.17933404 -7348.71730377 22.5 0.939692620881 -0.342020143066 1.00470160711e-20
-7124.17933404 -7348.71730377 31.5 0.939692620881 -0.342020143066 1.00470160711e-20
-7124.17933404 -7348.71730377 40.5 0.939692620881 -0.342020143066 1.00470160711e-20
-7124.17933404 -7348.71730377 49.5 0.939692620881 -0.342020143066 1.00470160711e-20
-7124.17933404 -7348.71730377 56.999998291 0.939692620881 -0.342020143066 1.00470160711e-20
-7130.60244317 -7357.56399126 55.499996582 -0.342020142779 -0.939692620985 0.0
-7130.60244317 -7357.56399126 46.499996582 -0.342020142779 -0.939692620985 0.0
-7130.60244317 -7357.56399126 37.499996582 -0.342020142779 -0.939692620985 0.0
-7130.60244317 -7357.56399126 28.499996582 -0.342020142779 -0.939692620985 0.0
-7130.60244317 -7357.56399126 19.499996582 -0.342020142779 -0.939692620985 0.0
-7130.60244317 -7357.56399126 10.499996582 -0.342020142779 -0.939692620985 0.0
-7130.60244317 -7357.56399126 2.999998291 -0.342020142779 -0.939692620985 0.0
-7135.28981761 -7361.70026296 4.5 0.939692620599 -0.342020143839 0.0
-7135.28981761 -7361.70026296 13.5 0.939692620599 -0.342020143839 0.0
-7135.28981761 -7361.70026296 22.5 0.939692620599 -0.342020143839 0.0
-7135.28981761 -7361.70026296 31.5 0.939692620599 -0.342020143839 0.0
-7135.28981761 -7361.70026296 40.5 0.939692620599 -0.342020143839 0.0
-7135.28981761 -7361.70026296 49.5 0.939692620599 -0.342020143839 0.0
-7135.28981761 -7361.70026296 56.999998291 0.939692620599 -0.342020143839 0.0
-7133.57971681 -7357.00179963 4.5 0.939692620599 -0.342020143839 0.0
-7133.57971681 -7357.00179963 13.5 0.939692620599 -0.342020143839 0.0
-7133.57971681 -7357.00179963 22.5 0.939692620599 -0.342020143839 0.0
-7133.57971681 -7357.00179963 31.5 0.939692620599 -0.342020143839 0.0
-7133.57971681 -7357.00179963 40.5 0.939692620599 -0.342020143839 0.0
-7133.57971681 -7357.00179963 49.5 0.939692620599 -0.342020143839 0.0
-7133.57971681 -7357.00179963 56.999998291 0.939692620599 -0.342020143839 0.0
-7134.01580436 -7366.94212405 55.499996582 0.342020142243 0.93969262118 -8.17340774164e-22
-7134.01580436 -7366.94212405 46.499996582 0.342020142243 0.93969262118 -8.17340774164e-22
-7134.01580436 -7366.94212405 37.499996582 0.342020142243 0.93969262118 -8.17340774164e-22
-7134.01580436 -7366.94212405 28.499996582 0.342020142243 0.93969262118 -8.17340774164e-22
-7134.01580436 -7366.94212405 19.499996582 0.342020142243 0.93969262118 -8.17340774164e-22
-7134.01580436 -7366.94212405 10.499996582 0.342020142243 0.93969262118 -8.17340774164e-22
-7134.01580436 -7366.94212405 2.999998291 0.342020142243 0.93969262118 -8.17340774164e-22
-7132.72983766 -7372.2096194 4.5 0.93969262074 -0.342020143453 -6.71168174642e-22
-7132.72983766 -7372.2096194 13.5 0.93969262074 -0.342020143453 -6.71168174642e-22
-7132.72983766 -7372.2096194 22.5 0.93969262074 -0.342020143453 -6.71168174642e-22
-7132.72983766 -7372.2096194 31.5 0.93969262074 -0.342020143453 -6.71168174642e-22
-7132.72983766 -7372.2096194 40.5 0.93969262074 -0.342020143453 -6.71168174642e-22
-7132.72983766 -7372.2096194 49.5 0.93969262074 -0.342020143453 -6.71168174642e-22
-7132.72983766 -7372.2096194 56.999998291 0.93969262074 -0.342020143453 -6.71168174642e-22
-7134.78195999 -7377.84777918 4.5 0.93969262074 -0.342020143453 -6.71168174642e-22
-7134.78195999 -7377.84777918 13.5 0.93969262074 -0.342020143453 -6.71168174642e-22
-7134.78195999 -7377.84777918 22.5 0.93969262074 -0.342020143453 -6.71168174642e-22
-7134.78195999 -7377.84777918 31.5 0.93969262074 -0.342020143453 -6.71168174642e-22
-7134.78195999 -7377.84777918 40.5 0.93969262074 -0.342020143453 -6.71168174642e-22
-7134.78195999 -7377.84777918 49.5 0.93969262074 -0.342020143453 -6.71168174642e-22
-7134.78195999 -7377.84777918 56.999998291 0.93969262074 -0.342020143453 -6.71168174642e-22
-7139.53642561 -7377.72420824 55.499996582 -0.342020143247 -0.939692620814 0.0
-7139.53642561 -7377.72420824 46.499996582 -0.342020143247 -0.939692620814 0.0
-7139.53642561 -7377.72420824 37.499996582 -0.342020143247 -0.939692620814 0.0
-7139.53642561 -7377.72420824 28.499996582 -0.342020143247 -0.939692620814 0.0
-7139.53642561 -7377.72420824 19.499996582 -0.342020143247 -0.939692620814 0.0
-7139.53642561 -7377.72420824 10.499996582 -0.342020143247 -0.939692620814 0.0
-7139.53642561 -7377.72420824 2.999998291 -0.342020143247 -0.939692620814 0.0
-7145.17458684 -7375.67208538 55.499996582 -0.342020143247 -0.939692620814 0.0
-7145.17458684 -7375.67208538 46.499996582 -0.342020143247 -0.939692620814 0.0
-7145.17458684 -7375.67208538 37.499996582 -0.342020143247 -0.939692620814 0.0
-7145.17458684 -7375.67208538 28.499996582 -0.342020143247 -0.939692620814 0.0
-7145.17458684 -7375.67208538 19.499996582 -0.342020143247 -0.939692620814 0.0
-7145.17458684 -7375.67208538 10.499996582 -0.342020143247 -0.939692620814 0.0
-7145.17458684 -7375.67208538 2.999998291 -0.342020143247 -0.939692620814 0.0
-7145.56404551 -7372.3271525 4.5 -0.939692620359 0.3420201445 -2.72446900974e-21
-7145.56404551 -7372.3271525 13.5 -0.939692620359 0.3420201445 -2.72446900974e-21
-7145.56404551 -7372.3271525 22.5 -0.939692620359 0.3420201445 -2.72446900974e-21
-7145.56404551 -7372.3271525 31.5 -0.939692620359 0.3420201445 -2.72446900974e-21
-7145.56404551 -7372.3271525 40.5 -0.939692620359 0.3420201445 -2.72446900974e-21
-7145.56404551 -7372.3271525 49.5 -0.939692620359 0.3420201445 -2.72446900974e-21
-7145.56404551 -7372.3271525 56.999998291 -0.939692620359 0.3420201445 -2.72446900974e-21
-7148.76062309 -7367.98179546 55.499996582 -0.342020143181 -0.939692620839 -3.13298768685e-21
-7148.76062309 -7367.98179546 46.499996582 -0.342020143181 -0.939692620839 -3.13298768685e-21
-7148.76062309 -7367.98179546 37.499996582 -0.342020143181 -0.939692620839 -3.13298768685e-21
-7148.76062309 -7367.98179546 28.499996582 -0.342020143181 -0.939692620839 -3.13298768685e-21
-7148.76062309 -7367.98179546 19.499996582 -0.342020143181 -0.939692620839 -3.13298768685e-21
-7148.76062309 -7367.98179546 10.499996582 -0.342020143181 -0.939692620839 -3.13298768685e-21
-7148.76062309 -7367.98179546 2.999998291 -0.342020143181 -0.939692620839 -3.13298768685e-21
-7153.45909078 -7366.27169308 55.499996582 -0.342020143181 -0.939692620839 -3.13298768685e-21
-7153.45909078 -7366.27169308 46.499996582 -0.342020143181 -0.939692620839 -3.13298768685e-21
-7153.45909078 -7366.27169308 37.499996582 -0.342020143181 -0.939692620839 -3.13298768685e-21
-7153.45909078 -7366.27169308 28.499996582 -0.342020143181 -0.939692620839 -3.13298768685e-21
-7153.45909078 -7366.27169308 19.499996582 -0.342020143181 -0.939692620839 -3.13298768685e-21
-7153.45909078 -7366.27169308 10.499996582 -0.342020143181 -0.939692620839 -3.13298768685e-21
-7153.45909078 -7366.27169308 2.999998291 -0.342020143181 -0.939692620839 -3.13298768685e-21
-7154.94218703 -7368.91378814 4.5 0.939692620894 -0.342020143028 0.0
-7154.94218703 -7368.91378814 13.5 0.939692620894 -0.342020143028 0.0
-7154.94218703 -7368.91378814 22.5 0.939692620894 -0.342020143028 0.0
-7154.94218703 -7368.91378814 31.5 0.939692620894 -0.342020143028 0.0
-7154.94218703 -7368.91378814 40.5 0.939692620894 -0.342020143028 0.0
-7154.94218703 -7368.91378814 49.5 0.939692620894 -0.342020143028 0.0
-7154.94218703 -7368.91378814 56.999998291 0.939692620894 -0.342020143028 0.0
-7160.20968345 -7370.19975774 55.499996582 -0.342020142816 -0.939692620971 0.0
-7160.20968345 -7370.19975774 46.499996582 -0.342020142816 -0.939692620971 0.0
-7160.20968345 -7370.19975774 37.499996582 -0.342020142816 -0.939692620971 0.0
-7160.20968345 -7370.19975774 28.499996582 -0.342020142816 -0.939692620971 0.0
-7160.20968345 -7370.19975774 19.499996582 -0.342020142816 -0.939692620971 0.0
-7160.20968345 -7370.19975774 10.499996582 -0.342020142816 -0.939692620971 0.0
-7160.20968345 -7370.19975774 2.999998291 -0.342020142816 -0.939692620971 0.0
-7165.84783303 -7368.14763912 55.499996582 -0.342020142816 -0.939692620971 0.0
-7165.84783303 -7368.14763912 46.499996582 -0.342020142816 -0.939692620971 0.0
-7165.84783303 -7368.14763912 37.499996582 -0.342020142816 -0.939692620971 0.0
-7165.84783303 -7368.14763912 28.499996582 -0.342020142816 -0.939692620971 0.0
-7165.84783303 -7368.14763912 19.499996582 -0.342020142816 -0.939692620971 0.0
-7165.84783303 -7368.14763912 10.499996582 -0.342020142816 -0.939692620971 0.0
-7165.84783303 -7368.14763912 2.999998291 -0.342020142816 -0.939692620971 0.0
-7164.69818851 -7360.57409126 4.5 -0.93969262074 0.342020143453 0.0
-7164.69818851 -7360.57409126 13.5 -0.93969262074 0.342020143453 0.0
-7164.69818851 -7360.57409126 22.5 -0.93969262074 0.342020143453 0.0
-7164.69818851 -7360.57409126 31.5 -0.93969262074 0.342020143453 0.0
-7164.69818851 -7360.57409126 40.5 -0.93969262074 0.342020143453 0.0
-7164.69818851 -7360.57409126 49.5 -0.93969262074 0.342020143453 0.0
-7164.69818851 -7360.57409126 56.999998291 -0.93969262074 0.342020143453 0.0
-7166.75031085 -7366.21225104 4.5 -0.93969262074 0.342020143453 0.0
-7166.75031085 -7366.21225104 13.5 -0.93969262074 0.342020143453 0.0
-7166.75031085 -7366.21225104 22.5 -0.93969262074 0.342020143453 0.0
-7166.75031085 -7366.21225104 31.5 -0.93969262074 0.342020143453 0.0
-7166.75031085 -7366.21225104 40.5 -0.93969262074 0.342020143453 0.0
-7166.75031085 -7366.21225104 49.5 -0.93969262074 0.342020143453 0.0
-7166.75031085 -7366.21225104 56.999998291 -0.93969262074 0.342020143453 0.0
-7294.78629224 -7337.83541908 4.5 0.866025403884 0.499999999828 0.0
-7294.78629224 -7337.83541908 13.5 0.866025403884 0.499999999828 0.0
-7294.78629224 -7337.83541908 22.5 0.866025403884 0.499999999828 0.0
-7294.78629224 -7337.83541908 28.4999991455 0.866025403884 0.499999999828 0.0
-7288.53681359 -7337.67983889 25.499998291 -0.499999999634 0.866025403996 -0.0
-7288.53681359 -7337.67983889 16.499998291 -0.499999999634 0.866025403996 -0.0
-7288.53681359 -7337.67983889 7.499998291 -0.499999999634 0.866025403996 -0.0
-7288.53681359 -7337.67983889 1.4999991455 -0.499999999634 0.866025403996 -0.0
-7292.86693947 -7340.17983823 25.499998291 -0.499999999634 0.866025403996 -0.0
-7292.86693947 -7340.17983823 16.499998291 -0.499999999634 0.866025403996 -0.0
-7292.86693947 -7340.17983823 7.499998291 -0.499999999634 0.866025403996 -0.0
-7292.86693947 -7340.17983823 1.4999991455 -0.499999999634 0.866025403996 -0.0
-7286.14336099 -7332.8454204 4.5 -0.866025403884 -0.499999999828 -5.00221092138e-20
-7286.14336099 -7332.8454204 13.5 -0.866025403884 -0.499999999828 -5.00221092138e-20
-7286.14336099 -7332.8454204 22.5 -0.866025403884 -0.499999999828 -5.00221092138e-20
-7286.14336099 -7332.8454204 28.4999991455 -0.866025403884 -0.499999999828 -5.00221092138e-20
-7283.74258788 -7327.98368139 25.499998291 -0.500000000235 0.866025403649 2.1366956734e-20
-7283.74258788 -7327.98368139 16.499998291 -0.500000000235 0.866025403649 2.1366956734e-20
-7283.74258788 -7327.98368139 7.499998291 -0.500000000235 0.866025403649 2.1366956734e-20
-7283.74258788 -7327.98368139 1.4999991455 -0.500000000235 0.866025403649 2.1366956734e-20
-7278.54643576 -7324.98368156 25.499998291 -0.500000000235 0.866025403649 2.1366956734e-20
-7278.54643576 -7324.98368156 16.499998291 -0.500000000235 0.866025403649 2.1366956734e-20
-7278.54643576 -7324.98368156 7.499998291 -0.500000000235 0.866025403649 2.1366956734e-20
-7278.54643576 -7324.98368156 1.4999991455 -0.500000000235 0.866025403649 2.1366956734e-20
-7273.48374424 -7330.73252119 4.5 0.86602540383 0.499999999921 0.0
-7273.48374424 -7330.73252119 13.5 0.86602540383 0.499999999921 0.0
-7273.48374424 -7330.73252119 22.5 0.86602540383 0.499999999921 0.0
-7273.48374424 -7330.73252119 28.4999991455 0.86602540383 0.499999999921 0.0
-7276.48374097 -7325.53637443 4.5 0.86602540383 0.499999999921 0.0
-7276.48374097 -7325.53637443 13.5 0.86602540383 0.499999999921 0.0
-7276.48374097 -7325.53637443 22.5 0.86602540383 0.499999999921 0.0
-7276.48374097 -7325.53637443 28.4999991455 0.86602540383 0.499999999921 0.0
-7273.83548324 -7336.14329723 25.499998291 0.499999999828 -0.866025403884 -4.33204173499e-20
-7273.83548324 -7336.14329723 16.499998291 0.499999999828 -0.866025403884 -4.33204173499e-20
-7273.83548324 -7336.14329723 7.499998291 0.499999999828 -0.866025403884 -4.33204173499e-20
-7273.83548324 -7336.14329723 1.4999991455 0.499999999828 -0.866025403884 -4.33204173499e-20
-7274.17990174 -7341.52675276 4.5 0.866025403778 0.500000000011 -2.06257316391e-20
-7274.17990174 -7341.52675276 13.5 0.866025403778 0.500000000011 -2.06257316391e-20
-7274.17990174 -7341.52675276 22.5 0.866025403778 0.500000000011 -2.06257316391e-20
-7274.17990174 -7341.52675276 28.4999991455 0.866025403778 0.500000000011 -2.06257316391e-20
-7271.6798993 -7345.856884 4.5 0.866025403778 0.500000000011 -2.06257316391e-20
-7271.6798993 -7345.856884 13.5 0.866025403778 0.500000000011 -2.06257316391e-20
-7271.6798993 -7345.856884 22.5 0.866025403778 0.500000000011 -2.06257316391e-20
-7271.6798993 -7345.856884 28.4999991455 0.866025403778 0.500000000011 -2.06257316391e-20
-7268.84547836 -7344.78623921 25.499998291 -0.499999999828 0.866025403884 0.0
-7268.84547836 -7344.78623921 16.499998291 -0.499999999828 0.866025403884 0.0
-7268.84547836 -7344.78623921 7.499998291 -0.499999999828 0.866025403884 0.0
-7268.84547836 -7344.78623921 1.4999991455 -0.499999999828 0.866025403884 0.0
-7262.4837335 -7349.78509867 4.5 0.866025403675 0.500000000189 0.0
-7262.4837335 -7349.78509867 13.5 0.866025403675 0.500000000189 0.0
-7262.4837335 -7349.78509867 22.5 0.866025403675 0.500000000189 0.0
-7262.4837335 -7349.78509867 28.4999991455 0.866025403675 0.500000000189 0.0
-7265.48373643 -7344.58894118 4.5 0.866025403675 0.500000000189 0.0
-7265.48373643 -7344.58894118 13.5 0.866025403675 0.500000000189 0.0
-7265.48373643 -7344.58894118 22.5 0.866025403675 0.500000000189 0.0
-7265.48373643 -7344.58894118 28.4999991455 0.866025403675 0.500000000189 0.0
-7264.13450807 -7355.94587325 25.499998291 0.500000000235 -0.866025403649 0.0
-7264.13450807 -7355.94587325 16.499998291 0.500000000235 -0.866025403649 0.0
-7264.13450807 -7355.94587325 7.499998291 0.500000000235 -0.866025403649 0.0
-7264.13450807 -7355.94587325 1.4999991455 0.500000000235 -0.866025403649 0.0
-7269.33066019 -7358.94587308 25.499998291 0.500000000235 -0.866025403649 0.0
-7269.33066019 -7358.94587308 16.499998291 0.500000000235 -0.866025403649 0.0
-7269.33066019 -7358.94587308 7.499998291 0.500000000235 -0.866025403649 0.0
-7269.33066019 -7358.94587308 1.4999991455 0.500000000235 -0.866025403649 0.0
-7272.14335972 -7357.0941339 4.5 -0.866025403884 -0.499999999828 0.0
-7272.14335972 -7357.0941339 13.5 -0.866025403884 -0.499999999828 0.0
-7272.14335972 -7357.0941339 22.5 -0.866025403884 -0.499999999828 0.0
-7272.14335972 -7357.0941339 28.4999991455 -0.866025403884 -0.499999999828 0.0
-7277.52681525 -7356.7497154 25.499998291 0.499999999634 -0.866025403996 0.0
-7277.52681525 -7356.7497154 16.499998291 0.499999999634 -0.866025403996 0.0
-7277.52681525 -7356.7497154 7.499998291 0.499999999634 -0.866025403996 0.0
-7277.52681525 -7356.7497154 1.4999991455 0.499999999634 -0.866025403996 0.0
-7281.85694113 -7359.24971474 25.499998291 0.499999999634 -0.866025403996 0.0
-7281.85694113 -7359.24971474 16.499998291 0.499999999634 -0.866025403996 0.0
-7281.85694113 -7359.24971474 7.499998291 0.499999999634 -0.866025403996 0.0
-7281.85694113 -7359.24971474 1.4999991455 0.499999999634 -0.866025403996 0.0
-7280.78629097 -7362.08413258 4.5 0.866025403884 0.499999999828 1.26658384073e-20
-7280.78629097 -7362.08413258 13.5 0.866025403884 0.499999999828 1.26658384073e-20
-7280.78629097 -7362.08413258 22.5 0.866025403884 0.499999999828 1.26658384073e-20
-7280.78629097 -7362.08413258 28.4999991455 0.866025403884 0.499999999828 1.26658384073e-20
-7283.18706408 -7366.94587158 25.499998291 0.500000000189 -0.866025403675 1.57300614824e-20
-7283.18706408 -7366.94587158 16.499998291 0.500000000189 -0.866025403675 1.57300614824e-20
-7283.18706408 -7366.94587158 7.499998291 0.500000000189 -0.866025403675 1.57300614824e-20
-7283.18706408 -7366.94587158 1.4999991455 0.500000000189 -0.866025403675 1.57300614824e-20
-7288.38322157 -7369.94587451 25.499998291 0.500000000189 -0.866025403675 1.57300614824e-20
-7288.38322157 -7369.94587451 16.499998291 0.500000000189 -0.866025403675 1.57300614824e-20
-7288.38322157 -7369.94587451 7.499998291 0.500000000189 -0.866025403675 1.57300614824e-20
-7288.38322157 -7369.94587451 1.4999991455 0.500000000189 -0.866025403675 1.57300614824e-20
-7293.44593086 -7364.19701652 4.5 -0.866025403675 -0.500000000189 0.0
-7293.44593086 -7364.19701652 13.5 -0.866025403675 -0.500000000189 0.0
-7293.44593086 -7364.19701652 22.5 -0.866025403675 -0.500000000189 0.0
-7293.44593086 -7364.19701652 28.4999991455 -0.866025403675 -0.500000000189 0.0
-7290.44592793 -7369.39317401 4.5 -0.866025403675 -0.500000000189 0.0
-7290.44592793 -7369.39317401 13.5 -0.866025403675 -0.500000000189 0.0
-7290.44592793 -7369.39317401 22.5 -0.866025403675 -0.500000000189 0.0
-7290.44592793 -7369.39317401 28.4999991455 -0.866025403675 -0.500000000189 0.0
-7293.09419186 -7358.78624048 25.499998291 -0.499999999828 0.866025403884 -6.69151649586e-21
-7293.09419186 -7358.78624048 16.499998291 -0.499999999828 0.866025403884 -6.69151649586e-21
-7293.09419186 -7358.78624048 7.499998291 -0.499999999828 0.866025403884 -6.69151649586e-21
-7293.09419186 -7358.78624048 1.4999991455 -0.499999999828 0.866025403884 -6.69151649586e-21
-7293.24977824 -7352.5367511 4.5 -0.866025403778 -0.500000000011 3.0181187066e-20
-7293.24977824 -7352.5367511 13.5 -0.866025403778 -0.500000000011 3.0181187066e-20
-7293.24977824 -7352.5367511 22.5 -0.866025403778 -0.500000000011 3.0181187066e-20
-7293.24977824 -7352.5367511 28.4999991455 -0.866025403778 -0.500000000011 3.0181187066e-20
-7290.7497758 -7356.86688234 4.5 -0.866025403778 -0.500000000011 3.0181187066e-20
-7290.7497758 -7356.86688234 13.5 -0.866025403778 -0.500000000011 3.0181187066e-20
-7290.7497758 -7356.86688234 22.5 -0.866025403778 -0.500000000011 3.0181187066e-20
-7290.7497758 -7356.86688234 28.4999991455 -0.866025403778 -0.500000000011 3.0181187066e-20
-7298.08419674 -7350.1432985 25.499998291 0.499999999828 -0.866025403884 1.26658384073e-20
-7298.08419674 -7350.1432985 16.499998291 0.499999999828 -0.866025403884 1.26658384073e-20
-7298.08419674 -7350.1432985 7.499998291 0.499999999828 -0.866025403884 1.26658384073e-20
-7298.08419674 -7350.1432985 1.4999991455 0.499999999828 -0.866025403884 1.26658384073e-20
-7304.4459292 -7345.14446051 4.5 -0.86602540383 -0.499999999921 0.0
-7304.4459292 -7345.14446051 13.5 -0.86602540383 -0.499999999921 0.0
-7304.4459292 -7345.14446051 22.5 -0.86602540383 -0.499999999921 0.0
-7304.4459292 -7345.14446051 28.4999991455 -0.86602540383 -0.499999999921 0.0
-7301.44593247 -7350.34060727 4.5 -0.86602540383 -0.499999999921 0.0
-7301.44593247 -7350.34060727 13.5 -0.86602540383 -0.499999999921 0.0
-7301.44593247 -7350.34060727 22.5 -0.86602540383 -0.499999999921 0.0
-7301.44593247 -7350.34060727 28.4999991455 -0.86602540383 -0.499999999921 0.0
-7302.79515463 -7338.98368594 25.499998291 -0.500000000189 0.866025403675 0.0
-7302.79515463 -7338.98368594 16.499998291 -0.500000000189 0.866025403675 0.0
-7302.79515463 -7338.98368594 7.499998291 -0.500000000189 0.866025403675 0.0
-7302.79515463 -7338.98368594 1.4999991455 -0.500000000189 0.866025403675 0.0
-7297.59899714 -7335.98368301 25.499998291 -0.500000000189 0.866025403675 0.0
-7297.59899714 -7335.98368301 16.499998291 -0.500000000189 0.866025403675 0.0
-7297.59899714 -7335.98368301 7.499998291 -0.500000000189 0.866025403675 0.0
-7297.59899714 -7335.98368301 1.4999991455 -0.500000000189 0.866025403675 0.0
-7283.56405468 -7298.32720717 4.5 -0.939692620449 0.342020144251 -0.0
-7283.56405468 -7298.32720717 13.5 -0.939692620449 0.342020144251 -0.0
-7283.56405468 -7298.32720717 22.5 -0.939692620449 0.342020144251 -0.0
-7283.56405468 -7298.32720717 31.5 -0.939692620449 0.342020144251 -0.0
-7283.56405468 -7298.32720717 40.5 -0.939692620449 0.342020144251 -0.0
-7283.56405468 -7298.32720717 49.5 -0.939692620449 0.342020144251 -0.0
-7283.56405468 -7298.32720717 58.5 -0.939692620449 0.342020144251 -0.0
-7283.56405468 -7298.32720717 67.5 -0.939692620449 0.342020144251 -0.0
-7283.56405468 -7298.32720717 76.5 -0.939692620449 0.342020144251 -0.0
-7283.56405468 -7298.32720717 83.999997522 -0.939692620449 0.342020144251 -0.0
-7286.76063332 -7293.98185304 82.4999950439 -0.342020143203 -0.939692620831 0.0
-7286.76063332 -7293.98185304 73.4999950439 -0.342020143203 -0.939692620831 0.0
-7286.76063332 -7293.98185304 64.4999950439 -0.342020143203 -0.939692620831 0.0
-7286.76063332 -7293.98185304 55.4999950439 -0.342020143203 -0.939692620831 0.0
-7286.76063332 -7293.98185304 46.4999950439 -0.342020143203 -0.939692620831 0.0
-7286.76063332 -7293.98185304 37.4999950439 -0.342020143203 -0.939692620831 0.0
-7286.76063332 -7293.98185304 28.4999950439 -0.342020143203 -0.939692620831 0.0
-7286.76063332 -7293.98185304 19.4999950439 -0.342020143203 -0.939692620831 0.0
-7286.76063332 -7293.98185304 10.4999950439 -0.342020143203 -0.939692620831 0.0
-7286.76063332 -7293.98185304 2.99999752195 -0.342020143203 -0.939692620831 0.0
-7291.45909518 -7292.27175278 82.4999950439 -0.342020143203 -0.939692620831 0.0
-7291.45909518 -7292.27175278 73.4999950439 -0.342020143203 -0.939692620831 0.0
-7291.45909518 -7292.27175278 64.4999950439 -0.342020143203 -0.939692620831 0.0
-7291.45909518 -7292.27175278 55.4999950439 -0.342020143203 -0.939692620831 0.0
-7291.45909518 -7292.27175278 46.4999950439 -0.342020143203 -0.939692620831 0.0
-7291.45909518 -7292.27175278 37.4999950439 -0.342020143203 -0.939692620831 0.0
-7291.45909518 -7292.27175278 28.4999950439 -0.342020143203 -0.939692620831 0.0
-7291.45909518 -7292.27175278 19.4999950439 -0.342020143203 -0.939692620831 0.0
-7291.45909518 -7292.27175278 10.4999950439 -0.342020143203 -0.939692620831 0.0
-7291.45909518 -7292.27175278 2.99999752195 -0.342020143203 -0.939692620831 0.0
-7292.94218455 -7294.91384705 4.5 0.939692620985 -0.342020142779 0.0
-7292.94218455 -7294.91384705 13.5 0.939692620985 -0.342020142779 0.0
-7292.94218455 -7294.91384705 22.5 0.939692620985 -0.342020142779 0.0
-7292.94218455 -7294.91384705 31.5 0.939692620985 -0.342020142779 0.0
-7292.94218455 -7294.91384705 40.5 0.939692620985 -0.342020142779 0.0
-7292.94218455 -7294.91384705 49.5 0.939692620985 -0.342020142779 0.0
-7292.94218455 -7294.91384705 58.5 0.939692620985 -0.342020142779 0.0
-7292.94218455 -7294.91384705 67.5 0.939692620985 -0.342020142779 0.0
-7292.94218455 -7294.91384705 76.5 0.939692620985 -0.342020142779 0.0
-7292.94218455 -7294.91384705 83.999997522 0.939692620985 -0.342020142779 0.0
-7298.20967991 -7296.19981374 82.4999950439 -0.342020142798 -0.939692620978 -1.33198286485e-20
-7298.20967991 -7296.19981374 73.4999950439 -0.342020142798 -0.939692620978 -1.33198286485e-20
-7298.20967991 -7296.19981374 64.4999950439 -0.342020142798 -0.939692620978 -1.33198286485e-20
-7298.20967991 -7296.19981374 55.4999950439 -0.342020142798 -0.939692620978 -1.33198286485e-20
-7298.20967991 -7296.19981374 46.4999950439 -0.342020142798 -0.939692620978 -1.33198286485e-20
-7298.20967991 -7296.19981374 37.4999950439 -0.342020142798 -0.939692620978 -1.33198286485e-20
-7298.20967991 -7296.19981374 28.4999950439 -0.342020142798 -0.939692620978 -1.33198286485e-20
-7298.20967991 -7296.19981374 19.4999950439 -0.342020142798 -0.939692620978 -1.33198286485e-20
-7298.20967991 -7296.19981374 10.4999950439 -0.342020142798 -0.939692620978 -1.33198286485e-20
-7298.20967991 -7296.19981374 2.99999752195 -0.342020142798 -0.939692620978 -1.33198286485e-20
-7303.84783531 -7294.147693 82.4999950439 -0.342020142798 -0.939692620978 -1.33198286485e-20
-7303.84783531 -7294.147693 73.4999950439 -0.342020142798 -0.939692620978 -1.33198286485e-20
-7303.84783531 -7294.147693 64.4999950439 -0.342020142798 -0.939692620978 -1.33198286485e-20
-7303.84783531 -7294.147693 55.4999950439 -0.342020142798 -0.939692620978 -1.33198286485e-20
-7303.84783531 -7294.147693 46.4999950439 -0.342020142798 -0.939692620978 -1.33198286485e-20
-7303.84783531 -7294.147693 37.4999950439 -0.342020142798 -0.939692620978 -1.33198286485e-20
-7303.84783531 -7294.147693 28.4999950439 -0.342020142798 -0.939692620978 -1.33198286485e-20
-7303.84783531 -7294.147693 19.4999950439 -0.342020142798 -0.939692620978 -1.33198286485e-20
-7303.84783531 -7294.147693 10.4999950439 -0.342020142798 -0.939692620978 -1.33198286485e-20
-7303.84783531 -7294.147693 2.99999752195 -0.342020142798 -0.939692620978 -1.33198286485e-20
-7303.72426 -7289.39322898 4.5 -0.939692620978 0.342020142798 -0.0
-7303.72426 -7289.39322898 13.5 -0.939692620978 0.342020142798 -0.0
-7303.72426 -7289.39322898 22.5 -0.939692620978 0.342020142798 -0.0
-7303.72426 -7289.39322898 31.5 -0.939692620978 0.342020142798 -0.0
-7303.72426 -7289.39322898 40.5 -0.939692620978 0.342020142798 -0.0
-7303.72426 -7289.39322898 49.5 -0.939692620978 0.342020142798 -0.0
-7303.72426 -7289.39322898 58.5 -0.939692620978 0.342020142798 -0.0
-7303.72426 -7289.39322898 67.5 -0.939692620978 0.342020142798 -0.0
-7303.72426 -7289.39322898 76.5 -0.939692620978 0.342020142798 -0.0
-7303.72426 -7289.39322898 83.999997522 -0.939692620978 0.342020142798 -0.0
-7301.67213926 -7283.75507358 4.5 -0.939692620978 0.342020142798 -0.0
-7301.67213926 -7283.75507358 13.5 -0.939692620978 0.342020142798 -0.0
-7301.67213926 -7283.75507358 22.5 -0.939692620978 0.342020142798 -0.0
-7301.67213926 -7283.75507358 31.5 -0.939692620978 0.342020142798 -0.0
-7301.67213926 -7283.75507358 40.5 -0.939692620978 0.342020142798 -0.0
-7301.67213926 -7283.75507358 49.5 -0.939692620978 0.342020142798 -0.0
-7301.67213926 -7283.75507358 58.5 -0.939692620978 0.342020142798 -0.0
-7301.67213926 -7283.75507358 67.5 -0.939692620978 0.342020142798 -0.0
-7301.67213926 -7283.75507358 76.5 -0.939692620978 0.342020142798 -0.0
-7301.67213926 -7283.75507358 83.999997522 -0.939692620978 0.342020142798 -0.0
-7298.32721142 -7283.36561967 82.4999950439 0.342020142243 0.93969262118 0.0
-7298.32721142 -7283.36561967 73.4999950439 0.342020142243 0.93969262118 0.0
-7298.32721142 -7283.36561967 64.4999950439 0.342020142243 0.93969262118 0.0
-7298.32721142 -7283.36561967 55.4999950439 0.342020142243 0.93969262118 0.0
-7298.32721142 -7283.36561967 46.4999950439 0.342020142243 0.93969262118 0.0
-7298.32721142 -7283.36561967 37.4999950439 0.342020142243 0.93969262118 0.0
-7298.32721142 -7283.36561967 28.4999950439 0.342020142243 0.93969262118 0.0
-7298.32721142 -7283.36561967 19.4999950439 0.342020142243 0.93969262118 0.0
-7298.32721142 -7283.36561967 10.4999950439 0.342020142243 0.93969262118 0.0
-7298.32721142 -7283.36561967 2.99999752195 0.342020142243 0.93969262118 0.0
-7293.63983804 -7279.22935089 4.5 -0.939692620831 0.342020143203 0.0
-7293.63983804 -7279.22935089 13.5 -0.939692620831 0.342020143203 0.0
-7293.63983804 -7279.22935089 22.5 -0.939692620831 0.342020143203 0.0
-7293.63983804 -7279.22935089 31.5 -0.939692620831 0.342020143203 0.0
-7293.63983804 -7279.22935089 40.5 -0.939692620831 0.342020143203 0.0
-7293.63983804 -7279.22935089 49.5 -0.939692620831 0.342020143203 0.0
-7293.63983804 -7279.22935089 58.5 -0.939692620831 0.342020143203 0.0
-7293.63983804 -7279.22935089 67.5 -0.939692620831 0.342020143203 0.0
-7293.63983804 -7279.22935089 76.5 -0.939692620831 0.342020143203 0.0
-7293.63983804 -7279.22935089 83.999997522 -0.939692620831 0.342020143203 0.0
-7295.34993831 -7283.92781276 4.5 -0.939692620831 0.342020143203 0.0
-7295.34993831 -7283.92781276 13.5 -0.939692620831 0.342020143203 0.0
-7295.34993831 -7283.92781276 22.5 -0.939692620831 0.342020143203 0.0
-7295.34993831 -7283.92781276 31.5 -0.939692620831 0.342020143203 0.0
-7295.34993831 -7283.92781276 40.5 -0.939692620831 0.342020143203 0.0
-7295.34993831 -7283.92781276 49.5 -0.939692620831 0.342020143203 0.0
-7295.34993831 -7283.92781276 58.5 -0.939692620831 0.342020143203 0.0
-7295.34993831 -7283.92781276 67.5 -0.939692620831 0.342020143203 0.0
-7295.34993831 -7283.92781276 76.5 -0.939692620831 0.342020143203 0.0
-7295.34993831 -7283.92781276 83.999997522 -0.939692620831 0.342020143203 0.0
-7294.91385129 -7273.9874898 82.4999950439 -0.342020142243 -0.93969262118 0.0
