-7378.5300466 -7136.82308442 40.5 -0.766044443673 -0.642787609026 0.0
-7378.5300466 -7136.82308442 49.5 -0.766044443673 -0.642787609026 0.0
-7378.5300466 -7136.82308442 58.5 -0.766044443673 -0.642787609026 0.0
-7378.5300466 -7136.82308442 67.5 -0.766044443673 -0.642787609026 0.0
-7378.5300466 -7136.82308442 76.4999976929 -0.766044443673 -0.642787609026 0.0
-7374.67331718 -7141.41935557 4.5 -0.766044443673 -0.642787609026 0.0
-7374.67331718 -7141.41935557 13.5 -0.766044443673 -0.642787609026 0.0
-7374.67331718 -7141.41935557 22.5 -0.766044443673 -0.642787609026 0.0
-7374.67331718 -7141.41935557 31.5 -0.766044443673 -0.642787609026 0.0
-7374.67331718 -7141.41935557 40.5 -0.766044443673 -0.642787609026 0.0
-7374.67331718 -7141.41935557 49.5 -0.766044443673 -0.642787609026 0.0
-7374.67331718 -7141.41935557 58.5 -0.766044443673 -0.642787609026 0.0
-7374.67331718 -7141.41935557 67.5 -0.766044443673 -0.642787609026 0.0
-7374.67331718 -7141.41935557 76.4999976929 -0.766044443673 -0.642787609026 0.0
-7377.97415828 -7130.46925186 76.4999953857 -0.642787609371 0.766044443384 -1.28509278233e-19
-7377.97415828 -7130.46925186 67.4999953857 -0.642787609371 0.766044443384 -1.28509278233e-19
-7377.97415828 -7130.46925186 58.4999953857 -0.642787609371 0.766044443384 -1.28509278233e-19
-7377.97415828 -7130.46925186 49.4999953857 -0.642787609371 0.766044443384 -1.28509278233e-19
-7377.97415828 -7130.46925186 40.4999953857 -0.642787609371 0.766044443384 -1.28509278233e-19
-7377.97415828 -7130.46925186 31.4999953857 -0.642787609371 0.766044443384 -1.28509278233e-19
-7377.97415828 -7130.46925186 22.4999953857 -0.642787609371 0.766044443384 -1.28509278233e-19
-7377.97415828 -7130.46925186 13.4999953857 -0.642787609371 0.766044443384 -1.28509278233e-19
-7377.97415828 -7130.46925186 4.49999769285 -0.642787609371 0.766044443384 -1.28509278233e-19
-7373.37788832 -7126.61252344 76.4999953857 -0.642787609371 0.766044443384 -1.28509278233e-19
-7373.37788832 -7126.61252344 67.4999953857 -0.642787609371 0.766044443384 -1.28509278233e-19
-7373.37788832 -7126.61252344 58.4999953857 -0.642787609371 0.766044443384 -1.28509278233e-19
-7373.37788832 -7126.61252344 49.4999953857 -0.642787609371 0.766044443384 -1.28509278233e-19
-7373.37788832 -7126.61252344 40.4999953857 -0.642787609371 0.766044443384 -1.28509278233e-19
-7373.37788832 -7126.61252344 31.4999953857 -0.642787609371 0.766044443384 -1.28509278233e-19
-7373.37788832 -7126.61252344 22.4999953857 -0.642787609371 0.766044443384 -1.28509278233e-19
-7373.37788832 -7126.61252344 13.4999953857 -0.642787609371 0.766044443384 -1.28509278233e-19
-7373.37788832 -7126.61252344 4.49999769285 -0.642787609371 0.766044443384 -1.28509278233e-19
-7370.28636533 -7127.94770739 4.5 0.766044442985 0.642787609847 0.0
-7370.28636533 -7127.94770739 13.5 0.766044442985 0.642787609847 0.0
-7370.28636533 -7127.94770739 22.5 0.766044442985 0.642787609847 0.0
-7370.28636533 -7127.94770739 31.5 0.766044442985 0.642787609847 0.0
-7370.28636533 -7127.94770739 40.5 0.766044442985 0.642787609847 0.0
-7370.28636533 -7127.94770739 49.5 0.766044442985 0.642787609847 0.0
-7370.28636533 -7127.94770739 58.5 0.766044442985 0.642787609847 0.0
-7370.28636533 -7127.94770739 67.5 0.766044442985 0.642787609847 0.0
-7370.28636533 -7127.94770739 76.4999976929 0.766044442985 0.642787609847 0.0
-7364.92488894 -7127.35206615 76.4999953857 -0.64278760922 0.76604444351 0.0
-7364.92488894 -7127.35206615 67.4999953857 -0.64278760922 0.76604444351 0.0
-7364.92488894 -7127.35206615 58.4999953857 -0.64278760922 0.76604444351 0.0
-7364.92488894 -7127.35206615 49.4999953857 -0.64278760922 0.76604444351 0.0
-7364.92488894 -7127.35206615 40.4999953857 -0.64278760922 0.76604444351 0.0
-7364.92488894 -7127.35206615 31.4999953857 -0.64278760922 0.76604444351 0.0
-7364.92488894 -7127.35206615 22.4999953857 -0.64278760922 0.76604444351 0.0
-7364.92488894 -7127.35206615 13.4999953857 -0.64278760922 0.76604444351 0.0
-7364.92488894 -7127.35206615 4.49999769285 -0.64278760922 0.76604444351 0.0
-7361.09466655 -7124.13812796 76.4999953857 -0.64278760922 0.76604444351 0.0
-7361.09466655 -7124.13812796 67.4999953857 -0.64278760922 0.76604444351 0.0
-7361.09466655 -7124.13812796 58.4999953857 -0.64278760922 0.76604444351 0.0
-7361.09466655 -7124.13812796 49.4999953857 -0.64278760922 0.76604444351 0.0
-7361.09466655 -7124.13812796 40.4999953857 -0.64278760922 0.76604444351 0.0
-7361.09466655 -7124.13812796 31.4999953857 -0.64278760922 0.76604444351 0.0
-7361.09466655 -7124.13812796 22.4999953857 -0.64278760922 0.76604444351 0.0
-7361.09466655 -7124.13812796 13.4999953857 -0.64278760922 0.76604444351 0.0
-7361.09466655 -7124.13812796 4.49999769285 -0.64278760922 0.76604444351 0.0
-7362.64124142 -7121.53268675 4.5 -0.766044443673 -0.642787609026 -2.45814351448e-20
-7362.64124142 -7121.53268675 13.5 -0.766044443673 -0.642787609026 -2.45814351448e-20
-7362.64124142 -7121.53268675 22.5 -0.766044443673 -0.642787609026 -2.45814351448e-20
-7362.64124142 -7121.53268675 31.5 -0.766044443673 -0.642787609026 -2.45814351448e-20
-7362.64124142 -7121.53268675 40.5 -0.766044443673 -0.642787609026 -2.45814351448e-20
-7362.64124142 -7121.53268675 49.5 -0.766044443673 -0.642787609026 -2.45814351448e-20
-7362.64124142 -7121.53268675 58.5 -0.766044443673 -0.642787609026 -2.45814351448e-20
-7362.64124142 -7121.53268675 67.5 -0.766044443673 -0.642787609026 -2.45814351448e-20
-7362.64124142 -7121.53268675 76.4999976929 -0.766044443673 -0.642787609026 -2.45814351448e-20
-7358.82304077 -7114.39955623 76.4999953857 -0.642787609507 0.76604444327 -0.0
-7358.82304077 -7114.39955623 67.4999953857 -0.642787609507 0.76604444327 -0.0
-7358.82304077 -7114.39955623 58.4999953857 -0.642787609507 0.76604444327 -0.0
-7358.82304077 -7114.39955623 49.4999953857 -0.642787609507 0.76604444327 -0.0
-7358.82304077 -7114.39955623 40.4999953857 -0.642787609507 0.76604444327 -0.0
-7358.82304077 -7114.39955623 31.4999953857 -0.642787609507 0.76604444327 -0.0
-7358.82304077 -7114.39955623 22.4999953857 -0.642787609507 0.76604444327 -0.0
-7358.82304077 -7114.39955623 13.4999953857 -0.642787609507 0.76604444327 -0.0
-7358.82304077 -7114.39955623 4.49999769285 -0.642787609507 0.76604444327 -0.0
-7363.41930717 -7118.25628166 76.4999953857 -0.642787609507 0.76604444327 -0.0
-7363.41930717 -7118.25628166 67.4999953857 -0.642787609507 0.76604444327 -0.0
-7363.41930717 -7118.25628166 58.4999953857 -0.642787609507 0.76604444327 -0.0
-7363.41930717 -7118.25628166 49.4999953857 -0.642787609507 0.76604444327 -0.0
-7363.41930717 -7118.25628166 40.4999953857 -0.642787609507 0.76604444327 -0.0
-7363.41930717 -7118.25628166 31.4999953857 -0.642787609507 0.76604444327 -0.0
-7363.41930717 -7118.25628166 22.4999953857 -0.642787609507 0.76604444327 -0.0
-7363.41930717 -7118.25628166 13.4999953857 -0.642787609507 0.76604444327 -0.0
-7363.41930717 -7118.25628166 4.49999769285 -0.642787609507 0.76604444327 -0.0
-7352.46920821 -7114.95544455 4.5 0.766044442919 0.642787609925 7.26485254484e-21
-7352.46920821 -7114.95544455 13.5 0.766044442919 0.642787609925 7.26485254484e-21
-7352.46920821 -7114.95544455 22.5 0.766044442919 0.642787609925 7.26485254484e-21
-7352.46920821 -7114.95544455 31.5 0.766044442919 0.642787609925 7.26485254484e-21
-7352.46920821 -7114.95544455 40.5 0.766044442919 0.642787609925 7.26485254484e-21
-7352.46920821 -7114.95544455 49.5 0.766044442919 0.642787609925 7.26485254484e-21
-7352.46920821 -7114.95544455 58.5 0.766044442919 0.642787609925 7.26485254484e-21
-7352.46920821 -7114.95544455 67.5 0.766044442919 0.642787609925 7.26485254484e-21
-7352.46920821 -7114.95544455 76.4999976929 0.766044442919 0.642787609925 7.26485254484e-21
-7348.61247879 -7119.55171569 4.5 0.766044442919 0.642787609925 7.26485254484e-21
-7348.61247879 -7119.55171569 13.5 0.766044442919 0.642787609925 7.26485254484e-21
-7348.61247879 -7119.55171569 22.5 0.766044442919 0.642787609925 7.26485254484e-21
-7348.61247879 -7119.55171569 31.5 0.766044442919 0.642787609925 7.26485254484e-21
-7348.61247879 -7119.55171569 40.5 0.766044442919 0.642787609925 7.26485254484e-21
-7348.61247879 -7119.55171569 49.5 0.766044442919 0.642787609925 7.26485254484e-21
-7348.61247879 -7119.55171569 58.5 0.766044442919 0.642787609925 7.26485254484e-21
-7348.61247879 -7119.55171569 67.5 0.766044442919 0.642787609925 7.26485254484e-21
-7348.61247879 -7119.55171569 76.4999976929 0.766044442919 0.642787609925 7.26485254484e-21
-7456.08425715 -7132.78628131 43.4999972656 0.499999999874 0.866025403857 -0.0
-7456.08425715 -7132.78628131 34.4999972656 0.499999999874 0.866025403857 -0.0
-7456.08425715 -7132.78628131 25.4999972656 0.499999999874 0.866025403857 -0.0
-7456.08425715 -7132.78628131 16.4999972656 0.499999999874 0.866025403857 -0.0
-7456.08425715 -7132.78628131 7.4999972656 0.499999999874 0.866025403857 -0.0
-7456.08425715 -7132.78628131 1.4999986328 0.499999999874 0.866025403857 -0.0
-7451.24984134 -7130.39282716 4.5 -0.866025404028 0.499999999578 5.5260599363e-21
-7451.24984134 -7130.39282716 13.5 -0.866025404028 0.499999999578 5.5260599363e-21
-7451.24984134 -7130.39282716 22.5 -0.866025404028 0.499999999578 5.5260599363e-21
-7451.24984134 -7130.39282716 31.5 -0.866025404028 0.499999999578 5.5260599363e-21
-7451.24984134 -7130.39282716 40.5 -0.866025404028 0.499999999578 5.5260599363e-21
-7451.24984134 -7130.39282716 46.4999986328 -0.866025404028 0.499999999578 5.5260599363e-21
-7448.7498389 -7126.06269591 4.5 -0.866025404028 0.499999999578 5.5260599363e-21
-7448.7498389 -7126.06269591 13.5 -0.866025404028 0.499999999578 5.5260599363e-21
-7448.7498389 -7126.06269591 22.5 -0.866025404028 0.499999999578 5.5260599363e-21
-7448.7498389 -7126.06269591 31.5 -0.866025404028 0.499999999578 5.5260599363e-21
-7448.7498389 -7126.06269591 40.5 -0.866025404028 0.499999999578 5.5260599363e-21
-7448.7498389 -7126.06269591 46.4999986328 -0.866025404028 0.499999999578 5.5260599363e-21
-7451.09425226 -7124.14333932 43.4999972656 -0.500000000596 -0.86602540344 1.40754468263e-20
-7451.09425226 -7124.14333932 34.4999972656 -0.500000000596 -0.86602540344 1.40754468263e-20
-7451.09425226 -7124.14333932 25.4999972656 -0.500000000596 -0.86602540344 1.40754468263e-20
-7451.09425226 -7124.14333932 16.4999972656 -0.500000000596 -0.86602540344 1.40754468263e-20
-7451.09425226 -7124.14333932 7.4999972656 -0.500000000596 -0.86602540344 1.40754468263e-20
-7451.09425226 -7124.14333932 1.4999986328 -0.500000000596 -0.86602540344 1.40754468263e-20
-7449.94599512 -7116.13449996 4.5 -0.866025403983 0.499999999657 0.0
-7449.94599512 -7116.13449996 13.5 -0.866025403983 0.499999999657 0.0
-7449.94599512 -7116.13449996 22.5 -0.866025403983 0.499999999657 0.0
-7449.94599512 -7116.13449996 31.5 -0.866025403983 0.499999999657 0.0
-7449.94599512 -7116.13449996 40.5 -0.866025403983 0.499999999657 0.0
-7449.94599512 -7116.13449996 46.4999986328 -0.866025403983 0.499999999657 0.0
-7452.94599185 -7121.33064671 4.5 -0.866025403983 0.499999999657 0.0
-7452.94599185 -7121.33064671 13.5 -0.866025403983 0.499999999657 0.0
-7452.94599185 -7121.33064671 22.5 -0.866025403983 0.499999999657 0.0
-7452.94599185 -7121.33064671 31.5 -0.866025403983 0.499999999657 0.0
-7452.94599185 -7121.33064671 40.5 -0.866025403983 0.499999999657 0.0
-7452.94599185 -7121.33064671 46.4999986328 -0.866025403983 0.499999999657 0.0
-7443.78522055 -7114.48372539 43.4999972656 0.500000000235 0.866025403649 0.0
-7443.78522055 -7114.48372539 34.4999972656 0.500000000235 0.866025403649 0.0
-7443.78522055 -7114.48372539 25.4999972656 0.500000000235 0.866025403649 0.0
-7443.78522055 -7114.48372539 16.4999972656 0.500000000235 0.866025403649 0.0
-7443.78522055 -7114.48372539 7.4999972656 0.500000000235 0.866025403649 0.0
-7443.78522055 -7114.48372539 1.4999986328 0.500000000235 0.866025403649 0.0
-7438.58906843 -7117.48372522 43.4999972656 0.500000000235 0.866025403649 0.0
-7438.58906843 -7117.48372522 34.4999972656 0.500000000235 0.866025403649 0.0
-7438.58906843 -7117.48372522 25.4999972656 0.500000000235 0.866025403649 0.0
-7438.58906843 -7117.48372522 16.4999972656 0.500000000235 0.866025403649 0.0
-7438.58906843 -7117.48372522 7.4999972656 0.500000000235 0.866025403649 0.0
-7438.58906843 -7117.48372522 1.4999986328 0.500000000235 0.866025403649 0.0
-7438.78637183 -7120.84546405 4.5 0.866025403884 -0.499999999828 3.37810683523e-20
-7438.78637183 -7120.84546405 13.5 0.866025403884 -0.499999999828 3.37810683523e-20
-7438.78637183 -7120.84546405 22.5 0.866025403884 -0.499999999828 3.37810683523e-20
-7438.78637183 -7120.84546405 31.5 0.866025403884 -0.499999999828 3.37810683523e-20
-7438.78637183 -7120.84546405 40.5 0.866025403884 -0.499999999828 3.37810683523e-20
-7438.78637183 -7120.84546405 46.4999986328 0.866025403884 -0.499999999828 3.37810683523e-20
-7435.52689343 -7126.17988278 43.4999972656 0.499999999836 0.866025403879 4.00212183199e-21
-7435.52689343 -7126.17988278 34.4999972656 0.499999999836 0.866025403879 4.00212183199e-21
-7435.52689343 -7126.17988278 25.4999972656 0.499999999836 0.866025403879 4.00212183199e-21
-7435.52689343 -7126.17988278 16.4999972656 0.499999999836 0.866025403879 4.00212183199e-21
-7435.52689343 -7126.17988278 7.4999972656 0.499999999836 0.866025403879 4.00212183199e-21
-7435.52689343 -7126.17988278 1.4999986328 0.499999999836 0.866025403879 4.00212183199e-21
-7439.85702065 -7123.67988266 43.4999972656 0.499999999836 0.866025403879 4.00212183199e-21
-7439.85702065 -7123.67988266 34.4999972656 0.499999999836 0.866025403879 4.00212183199e-21
-7439.85702065 -7123.67988266 25.4999972656 0.499999999836 0.866025403879 4.00212183199e-21
-7439.85702065 -7123.67988266 16.4999972656 0.499999999836 0.866025403879 4.00212183199e-21
-7439.85702065 -7123.67988266 7.4999972656 0.499999999836 0.866025403879 4.00212183199e-21
-7439.85702065 -7123.67988266 1.4999986328 0.499999999836 0.866025403879 4.00212183199e-21
-7430.1434379 -7125.83546428 4.5 -0.866025403884 0.499999999828 -3.37810683523e-20
-7430.1434379 -7125.83546428 13.5 -0.866025403884 0.499999999828 -3.37810683523e-20
-7430.1434379 -7125.83546428 22.5 -0.866025403884 0.499999999828 -3.37810683523e-20
-7430.1434379 -7125.83546428 31.5 -0.866025403884 0.499999999828 -3.37810683523e-20
-7430.1434379 -7125.83546428 40.5 -0.866025403884 0.499999999828 -3.37810683523e-20
-7430.1434379 -7125.83546428 46.4999986328 -0.866025403884 0.499999999828 -3.37810683523e-20
-7424.73266186 -7125.48372528 43.4999972656 0.50000000002 0.866025403773 0.0
-7424.73266186 -7125.48372528 34.4999972656 0.50000000002 0.866025403773 0.0
-7424.73266186 -7125.48372528 25.4999972656 0.50000000002 0.866025403773 0.0
-7424.73266186 -7125.48372528 16.4999972656 0.50000000002 0.866025403773 0.0
-7424.73266186 -7125.48372528 7.4999972656 0.50000000002 0.866025403773 0.0
-7424.73266186 -7125.48372528 1.4999986328 0.50000000002 0.866025403773 0.0
-7419.53650571 -7128.48372743 43.4999972656 0.50000000002 0.866025403773 0.0
-7419.53650571 -7128.48372743 34.4999972656 0.50000000002 0.866025403773 0.0
-7419.53650571 -7128.48372743 25.4999972656 0.50000000002 0.866025403773 0.0
-7419.53650571 -7128.48372743 16.4999972656 0.50000000002 0.866025403773 0.0
-7419.53650571 -7128.48372743 7.4999972656 0.50000000002 0.866025403773 0.0
-7419.53650571 -7128.48372743 1.4999986328 0.50000000002 0.866025403773 0.0
-7420.48380361 -7133.14450416 4.5 0.866025403983 -0.499999999656 -0.0
-7420.48380361 -7133.14450416 13.5 0.866025403983 -0.499999999656 -0.0
-7420.48380361 -7133.14450416 22.5 0.866025403983 -0.499999999656 -0.0
-7420.48380361 -7133.14450416 31.5 0.866025403983 -0.499999999656 -0.0
-7420.48380361 -7133.14450416 40.5 0.866025403983 -0.499999999656 -0.0
-7420.48380361 -7133.14450416 46.4999986328 0.866025403983 -0.499999999656 -0.0
-7423.48380034 -7138.34065091 4.5 0.866025403983 -0.499999999656 -0.0
-7423.48380034 -7138.34065091 13.5 0.866025403983 -0.499999999656 -0.0
-7423.48380034 -7138.34065091 22.5 0.866025403983 -0.499999999656 -0.0
-7423.48380034 -7138.34065091 31.5 0.866025403983 -0.499999999656 -0.0
-7423.48380034 -7138.34065091 40.5 0.866025403983 -0.499999999656 -0.0
-7423.48380034 -7138.34065091 46.4999986328 0.866025403983 -0.499999999656 -0.0
-7426.84553875 -7138.14334059 43.4999972656 -0.499999999782 -0.866025403911 0.0
-7426.84553875 -7138.14334059 34.4999972656 -0.499999999782 -0.866025403911 0.0
-7426.84553875 -7138.14334059 25.4999972656 -0.499999999782 -0.866025403911 0.0
-7426.84553875 -7138.14334059 16.4999972656 -0.499999999782 -0.866025403911 0.0
-7426.84553875 -7138.14334059 7.4999972656 -0.499999999782 -0.866025403911 0.0
-7426.84553875 -7138.14334059 1.4999986328 -0.499999999782 -0.866025403911 0.0
-7432.17996482 -7141.4028255 4.5 0.866025404028 -0.499999999578 0.0
-7432.17996482 -7141.4028255 13.5 0.866025404028 -0.499999999578 0.0
-7432.17996482 -7141.4028255 22.5 0.866025404028 -0.499999999578 0.0
-7432.17996482 -7141.4028255 31.5 0.866025404028 -0.499999999578 0.0
-7432.17996482 -7141.4028255 40.5 0.866025404028 -0.499999999578 0.0
-7432.17996482 -7141.4028255 46.4999986328 0.866025404028 -0.499999999578 0.0
-7429.67996238 -7137.07269425 4.5 0.866025404028 -0.499999999578 0.0
-7429.67996238 -7137.07269425 13.5 0.866025404028 -0.499999999578 0.0
-7429.67996238 -7137.07269425 22.5 0.866025404028 -0.499999999578 0.0
-7429.67996238 -7137.07269425 31.5 0.866025404028 -0.499999999578 0.0
-7429.67996238 -7137.07269425 40.5 0.866025404028 -0.499999999578 0.0
-7429.67996238 -7137.07269425 46.4999986328 0.866025404028 -0.499999999578 0.0
-7431.83554364 -7146.78628258 43.4999972656 0.500000000503 0.866025403494 5.94898243195e-21
-7431.83554364 -7146.78628258 34.4999972656 0.500000000503 0.866025403494 5.94898243195e-21
-7431.83554364 -7146.78628258 25.4999972656 0.500000000503 0.866025403494 5.94898243195e-21
-7431.83554364 -7146.78628258 16.4999972656 0.500000000503 0.866025403494 5.94898243195e-21
-7431.83554364 -7146.78628258 7.4999972656 0.500000000503 0.866025403494 5.94898243195e-21
-7431.83554364 -7146.78628258 1.4999986328 0.500000000503 0.866025403494 5.94898243195e-21
-7432.98380781 -7154.79514652 4.5 0.866025404036 -0.499999999564 0.0
-7432.98380781 -7154.79514652 13.5 0.866025404036 -0.499999999564 0.0
-7432.98380781 -7154.79514652 22.5 0.866025404036 -0.499999999564 0.0
-7432.98380781 -7154.79514652 31.5 0.866025404036 -0.499999999564 0.0
-7432.98380781 -7154.79514652 40.5 0.866025404036 -0.499999999564 0.0
-7432.98380781 -7154.79514652 46.4999986328 0.866025404036 -0.499999999564 0.0
-7429.98380488 -7149.59898903 4.5 0.866025404036 -0.499999999564 0.0
-7429.98380488 -7149.59898903 13.5 0.866025404036 -0.499999999564 0.0
-7429.98380488 -7149.59898903 22.5 0.866025404036 -0.499999999564 0.0
-7429.98380488 -7149.59898903 31.5 0.866025404036 -0.499999999564 0.0
-7429.98380488 -7149.59898903 40.5 0.866025404036 -0.499999999564 0.0
-7429.98380488 -7149.59898903 46.4999986328 0.866025404036 -0.499999999564 0.0
-7439.14458238 -7156.44592109 43.4999972656 -0.50000000002 -0.866025403773 -1.02158159509e-20
-7439.14458238 -7156.44592109 34.4999972656 -0.50000000002 -0.866025403773 -1.02158159509e-20
-7439.14458238 -7156.44592109 25.4999972656 -0.50000000002 -0.866025403773 -1.02158159509e-20
-7439.14458238 -7156.44592109 16.4999972656 -0.50000000002 -0.866025403773 -1.02158159509e-20
-7439.14458238 -7156.44592109 7.4999972656 -0.50000000002 -0.866025403773 -1.02158159509e-20
-7439.14458238 -7156.44592109 1.4999986328 -0.50000000002 -0.866025403773 -1.02158159509e-20
-7444.34073853 -7153.44591894 43.4999972656 -0.50000000002 -0.866025403773 -1.02158159509e-20
-7444.34073853 -7153.44591894 34.4999972656 -0.50000000002 -0.866025403773 -1.02158159509e-20
-7444.34073853 -7153.44591894 25.4999972656 -0.50000000002 -0.866025403773 -1.02158159509e-20
-7444.34073853 -7153.44591894 16.4999972656 -0.50000000002 -0.866025403773 -1.02158159509e-20
-7444.34073853 -7153.44591894 7.4999972656 -0.50000000002 -0.866025403773 -1.02158159509e-20
-7444.34073853 -7153.44591894 1.4999986328 -0.50000000002 -0.866025403773 -1.02158159509e-20
-7444.14343916 -7150.08417778 4.5 -0.866025403884 0.499999999828 -1.96445504433e-21
-7444.14343916 -7150.08417778 13.5 -0.866025403884 0.499999999828 -1.96445504433e-21
-7444.14343916 -7150.08417778 22.5 -0.866025403884 0.499999999828 -1.96445504433e-21
-7444.14343916 -7150.08417778 31.5 -0.866025403884 0.499999999828 -1.96445504433e-21
-7444.14343916 -7150.08417778 40.5 -0.866025403884 0.499999999828 -1.96445504433e-21
-7444.14343916 -7150.08417778 46.4999986328 -0.866025403884 0.499999999828 -1.96445504433e-21
-7446.53689176 -7145.24975928 43.4999972656 -0.500000000153 -0.866025403696 -6.87563869539e-22
-7446.53689176 -7145.24975928 34.4999972656 -0.500000000153 -0.866025403696 -6.87563869539e-22
-7446.53689176 -7145.24975928 25.4999972656 -0.500000000153 -0.866025403696 -6.87563869539e-22
-7446.53689176 -7145.24975928 16.4999972656 -0.500000000153 -0.866025403696 -6.87563869539e-22
-7446.53689176 -7145.24975928 7.4999972656 -0.500000000153 -0.866025403696 -6.87563869539e-22
-7446.53689176 -7145.24975928 1.4999986328 -0.500000000153 -0.866025403696 -6.87563869539e-22
-7450.86701898 -7142.74975916 43.4999972656 -0.500000000153 -0.866025403696 -6.87563869539e-22
-7450.86701898 -7142.74975916 34.4999972656 -0.500000000153 -0.866025403696 -6.87563869539e-22
-7450.86701898 -7142.74975916 25.4999972656 -0.500000000153 -0.866025403696 -6.87563869539e-22
-7450.86701898 -7142.74975916 16.4999972656 -0.500000000153 -0.866025403696 -6.87563869539e-22
-7450.86701898 -7142.74975916 7.4999972656 -0.500000000153 -0.866025403696 -6.87563869539e-22
-7450.86701898 -7142.74975916 1.4999986328 -0.500000000153 -0.866025403696 -6.87563869539e-22
-7452.7863731 -7145.09417754 4.5 0.866025403884 -0.499999999828 1.96445504433e-21
-7452.7863731 -7145.09417754 13.5 0.866025403884 -0.499999999828 1.96445504433e-21
-7452.7863731 -7145.09417754 22.5 0.866025403884 -0.499999999828 1.96445504433e-21
-7452.7863731 -7145.09417754 31.5 0.866025403884 -0.499999999828 1.96445504433e-21
-7452.7863731 -7145.09417754 40.5 0.866025403884 -0.499999999828 1.96445504433e-21
-7452.7863731 -7145.09417754 46.4999986328 0.866025403884 -0.499999999828 1.96445504433e-21
-7458.19714914 -7145.44591654 43.4999972656 -0.499999999971 -0.866025403801 -2.49187335761e-19
-7458.19714914 -7145.44591654 34.4999972656 -0.499999999971 -0.866025403801 -2.49187335761e-19
-7458.19714914 -7145.44591654 25.4999972656 -0.499999999971 -0.866025403801 -2.49187335761e-19
-7458.19714914 -7145.44591654 16.4999972656 -0.499999999971 -0.866025403801 -2.49187335761e-19
-7458.19714914 -7145.44591654 7.4999972656 -0.499999999971 -0.866025403801 -2.49187335761e-19
-7458.19714914 -7145.44591654 1.4999986328 -0.499999999971 -0.866025403801 -2.49187335761e-19
-7463.39330126 -7142.44591672 43.4999972656 -0.499999999971 -0.866025403801 -2.49187335761e-19
-7463.39330126 -7142.44591672 34.4999972656 -0.499999999971 -0.866025403801 -2.49187335761e-19
-7463.39330126 -7142.44591672 25.4999972656 -0.499999999971 -0.866025403801 -2.49187335761e-19
-7463.39330126 -7142.44591672 16.4999972656 -0.499999999971 -0.866025403801 -2.49187335761e-19
-7463.39330126 -7142.44591672 7.4999972656 -0.499999999971 -0.866025403801 -2.49187335761e-19
-7463.39330126 -7142.44591672 1.4999986328 -0.499999999971 -0.866025403801 -2.49187335761e-19
-7460.94599346 -7135.18705597 4.5 -0.866025404036 0.499999999564 -1.78908420498e-21
-7460.94599346 -7135.18705597 13.5 -0.866025404036 0.499999999564 -1.78908420498e-21
-7460.94599346 -7135.18705597 22.5 -0.866025404036 0.499999999564 -1.78908420498e-21
-7460.94599346 -7135.18705597 31.5 -0.866025404036 0.499999999564 -1.78908420498e-21
-7460.94599346 -7135.18705597 40.5 -0.866025404036 0.499999999564 -1.78908420498e-21
-7460.94599346 -7135.18705597 46.4999986328 -0.866025404036 0.499999999564 -1.78908420498e-21
-7463.94599639 -7140.38321346 4.5 -0.866025404036 0.499999999564 -1.78908420498e-21
-7463.94599639 -7140.38321346 13.5 -0.866025404036 0.499999999564 -1.78908420498e-21
-7463.94599639 -7140.38321346 22.5 -0.866025404036 0.499999999564 -1.78908420498e-21
-7463.94599639 -7140.38321346 31.5 -0.866025404036 0.499999999564 -1.78908420498e-21
-7463.94599639 -7140.38321346 40.5 -0.866025404036 0.499999999564 -1.78908420498e-21
-7463.94599639 -7140.38321346 46.4999986328 -0.866025404036 0.499999999564 -1.78908420498e-21
-7222.38564324 -7152.81008177 64.4999960693 -0.17364817825 0.984807752909 0.0
-7222.38564324 -7152.81008177 55.4999960693 -0.17364817825 0.984807752909 0.0
-7222.38564324 -7152.81008177 46.4999960693 -0.17364817825 0.984807752909 0.0
-7222.38564324 -7152.81008177 37.4999960693 -0.17364817825 0.984807752909 0.0
-7222.38564324 -7152.81008177 28.4999960693 -0.17364817825 0.984807752909 0.0
-7222.38564324 -7152.81008177 19.4999960693 -0.17364817825 0.984807752909 0.0
-7222.38564324 -7152.81008177 10.4999960693 -0.17364817825 0.984807752909 0.0
-7222.38564324 -7152.81008177 2.99999803465 -0.17364817825 0.984807752909 0.0
-7220.22074855 -7147.86908693 4.5 -0.984807752981 -0.173648177842 -0.0
-7220.22074855 -7147.86908693 13.5 -0.984807752981 -0.173648177842 -0.0
-7220.22074855 -7147.86908693 22.5 -0.984807752981 -0.173648177842 -0.0
-7220.22074855 -7147.86908693 31.5 -0.984807752981 -0.173648177842 -0.0
-7220.22074855 -7147.86908693 40.5 -0.984807752981 -0.173648177842 -0.0
-7220.22074855 -7147.86908693 49.5 -0.984807752981 -0.173648177842 -0.0
-7220.22074855 -7147.86908693 58.5 -0.984807752981 -0.173648177842 -0.0
-7220.22074855 -7147.86908693 65.9999980346 -0.984807752981 -0.173648177842 -0.0
-7221.08898921 -7142.94504947 4.5 -0.984807752981 -0.173648177842 -0.0
-7221.08898921 -7142.94504947 13.5 -0.984807752981 -0.173648177842 -0.0
-7221.08898921 -7142.94504947 22.5 -0.984807752981 -0.173648177842 -0.0
-7221.08898921 -7142.94504947 31.5 -0.984807752981 -0.173648177842 -0.0
-7221.08898921 -7142.94504947 40.5 -0.984807752981 -0.173648177842 -0.0
-7221.08898921 -7142.94504947 49.5 -0.984807752981 -0.173648177842 -0.0
-7221.08898921 -7142.94504947 58.5 -0.984807752981 -0.173648177842 -0.0
-7221.08898921 -7142.94504947 65.9999980346 -0.984807752981 -0.173648177842 -0.0
-7224.1186516 -7142.98170299 64.4999960693 0.17364817825 -0.984807752909 0.0
-7224.1186516 -7142.98170299 55.4999960693 0.17364817825 -0.984807752909 0.0
-7224.1186516 -7142.98170299 46.4999960693 0.17364817825 -0.984807752909 0.0
-7224.1186516 -7142.98170299 37.4999960693 0.17364817825 -0.984807752909 0.0
-7224.1186516 -7142.98170299 28.4999960693 0.17364817825 -0.984807752909 0.0
-7224.1186516 -7142.98170299 19.4999960693 0.17364817825 -0.984807752909 0.0
-7224.1186516 -7142.98170299 10.4999960693 0.17364817825 -0.984807752909 0.0
-7224.1186516 -7142.98170299 2.99999803465 0.17364817825 -0.984807752909 0.0
-7228.38702047 -7136.10847842 4.5 -0.984807752934 -0.173648178108 0.0
-7228.38702047 -7136.10847842 13.5 -0.984807752934 -0.173648178108 0.0
-7228.38702047 -7136.10847842 22.5 -0.984807752934 -0.173648178108 0.0
-7228.38702047 -7136.10847842 31.5 -0.984807752934 -0.173648178108 0.0
-7228.38702047 -7136.10847842 40.5 -0.984807752934 -0.173648178108 0.0
-7228.38702047 -7136.10847842 49.5 -0.984807752934 -0.173648178108 0.0
-7228.38702047 -7136.10847842 58.5 -0.984807752934 -0.173648178108 0.0
-7228.38702047 -7136.10847842 65.9999980346 -0.984807752934 -0.173648178108 0.0
-7227.34513146 -7142.0173246 4.5 -0.984807752934 -0.173648178108 0.0
-7227.34513146 -7142.0173246 13.5 -0.984807752934 -0.173648178108 0.0
-7227.34513146 -7142.0173246 22.5 -0.984807752934 -0.173648178108 0.0
-7227.34513146 -7142.0173246 31.5 -0.984807752934 -0.173648178108 0.0
-7227.34513146 -7142.0173246 40.5 -0.984807752934 -0.173648178108 0.0
-7227.34513146 -7142.0173246 49.5 -0.984807752934 -0.173648178108 0.0
-7227.34513146 -7142.0173246 58.5 -0.984807752934 -0.173648178108 0.0
-7227.34513146 -7142.0173246 65.9999980346 -0.984807752934 -0.173648178108 0.0
-7221.7742682 -7130.36289776 64.4999960693 -0.173648177442 0.984807753052 -5.55010475271e-22
-7221.7742682 -7130.36289776 55.4999960693 -0.173648177442 0.984807753052 -5.55010475271e-22
-7221.7742682 -7130.36289776 46.4999960693 -0.173648177442 0.984807753052 -5.55010475271e-22
-7221.7742682 -7130.36289776 37.4999960693 -0.173648177442 0.984807753052 -5.55010475271e-22
-7221.7742682 -7130.36289776 28.4999960693 -0.173648177442 0.984807753052 -5.55010475271e-22
-7221.7742682 -7130.36289776 19.4999960693 -0.173648177442 0.984807753052 -5.55010475271e-22
-7221.7742682 -7130.36289776 10.4999960693 -0.173648177442 0.984807753052 -5.55010475271e-22
-7221.7742682 -7130.36289776 2.99999803465 -0.173648177442 0.984807753052 -5.55010475271e-22
-7227.68311438 -7131.40478677 64.4999960693 -0.173648177442 0.984807753052 -5.55010475271e-22
-7227.68311438 -7131.40478677 55.4999960693 -0.173648177442 0.984807753052 -5.55010475271e-22
-7227.68311438 -7131.40478677 46.4999960693 -0.173648177442 0.984807753052 -5.55010475271e-22
-7227.68311438 -7131.40478677 37.4999960693 -0.173648177442 0.984807753052 -5.55010475271e-22
-7227.68311438 -7131.40478677 28.4999960693 -0.173648177442 0.984807753052 -5.55010475271e-22
-7227.68311438 -7131.40478677 19.4999960693 -0.173648177442 0.984807753052 -5.55010475271e-22
-7227.68311438 -7131.40478677 10.4999960693 -0.173648177442 0.984807753052 -5.55010475271e-22
-7227.68311438 -7131.40478677 2.99999803465 -0.173648177442 0.984807753052 -5.55010475271e-22
-7216.81010371 -7132.5440187 4.5 0.984807753119 0.173648177061 0.0
-7216.81010371 -7132.5440187 13.5 0.984807753119 0.173648177061 0.0
-7216.81010371 -7132.5440187 22.5 0.984807753119 0.173648177061 0.0
-7216.81010371 -7132.5440187 31.5 0.984807753119 0.173648177061 0.0
-7216.81010371 -7132.5440187 40.5 0.984807753119 0.173648177061 0.0
-7216.81010371 -7132.5440187 49.5 0.984807753119 0.173648177061 0.0
-7216.81010371 -7132.5440187 58.5 0.984807753119 0.173648177061 0.0
-7216.81010371 -7132.5440187 65.9999980346 0.984807753119 0.173648177061 0.0
-7211.86910834 -7134.70891645 64.4999960693 -0.173648177713 0.984807753004 0.0
-7211.86910834 -7134.70891645 55.4999960693 -0.173648177713 0.984807753004 0.0
-7211.86910834 -7134.70891645 46.4999960693 -0.173648177713 0.984807753004 0.0
-7211.86910834 -7134.70891645 37.4999960693 -0.173648177713 0.984807753004 0.0
-7211.86910834 -7134.70891645 28.4999960693 -0.173648177713 0.984807753004 0.0
-7211.86910834 -7134.70891645 19.4999960693 -0.173648177713 0.984807753004 0.0
-7211.86910834 -7134.70891645 10.4999960693 -0.173648177713 0.984807753004 0.0
-7211.86910834 -7134.70891645 2.99999803465 -0.173648177713 0.984807753004 0.0
-7206.94506934 -7133.84067552 64.4999960693 -0.173648177713 0.984807753004 0.0
-7206.94506934 -7133.84067552 55.4999960693 -0.173648177713 0.984807753004 0.0
-7206.94506934 -7133.84067552 46.4999960693 -0.173648177713 0.984807753004 0.0
-7206.94506934 -7133.84067552 37.4999960693 -0.173648177713 0.984807753004 0.0
-7206.94506934 -7133.84067552 28.4999960693 -0.173648177713 0.984807753004 0.0
-7206.94506934 -7133.84067552 19.4999960693 -0.173648177713 0.984807753004 0.0
-7206.94506934 -7133.84067552 10.4999960693 -0.173648177713 0.984807753004 0.0
-7206.94506934 -7133.84067552 2.99999803465 -0.173648177713 0.984807753004 0.0
-7206.98172187 -7130.81100981 4.5 -0.984807752834 -0.173648178678 -0.0
-7206.98172187 -7130.81100981 13.5 -0.984807752834 -0.173648178678 -0.0
-7206.98172187 -7130.81100981 22.5 -0.984807752834 -0.173648178678 -0.0
-7206.98172187 -7130.81100981 31.5 -0.984807752834 -0.173648178678 -0.0
-7206.98172187 -7130.81100981 40.5 -0.984807752834 -0.173648178678 -0.0
-7206.98172187 -7130.81100981 49.5 -0.984807752834 -0.173648178678 -0.0
-7206.98172187 -7130.81100981 58.5 -0.984807752834 -0.173648178678 -0.0
-7206.98172187 -7130.81100981 65.9999980346 -0.984807752834 -0.173648178678 -0.0
-7200.10848868 -7126.54263627 64.4999960693 -0.173648177691 0.984807753008 -0.0
-7200.10848868 -7126.54263627 55.4999960693 -0.173648177691 0.984807753008 -0.0
-7200.10848868 -7126.54263627 46.4999960693 -0.173648177691 0.984807753008 -0.0
-7200.10848868 -7126.54263627 37.4999960693 -0.173648177691 0.984807753008 -0.0
-7200.10848868 -7126.54263627 28.4999960693 -0.173648177691 0.984807753008 -0.0
-7200.10848868 -7126.54263627 19.4999960693 -0.173648177691 0.984807753008 -0.0
-7200.10848868 -7126.54263627 10.4999960693 -0.173648177691 0.984807753008 -0.0
-7200.10848868 -7126.54263627 2.99999803465 -0.173648177691 0.984807753008 -0.0
-7206.01733945 -7127.58452609 64.4999960693 -0.173648177691 0.984807753008 -0.0
-7206.01733945 -7127.58452609 55.4999960693 -0.173648177691 0.984807753008 -0.0
-7206.01733945 -7127.58452609 46.4999960693 -0.173648177691 0.984807753008 -0.0
-7206.01733945 -7127.58452609 37.4999960693 -0.173648177691 0.984807753008 -0.0
-7206.01733945 -7127.58452609 28.4999960693 -0.173648177691 0.984807753008 -0.0
-7206.01733945 -7127.58452609 19.4999960693 -0.173648177691 0.984807753008 -0.0
-7206.01733945 -7127.58452609 10.4999960693 -0.173648177691 0.984807753008 -0.0
-7206.01733945 -7127.58452609 2.99999803465 -0.173648177691 0.984807753008 -0.0
-7194.36290802 -7133.15538855 4.5 0.984807753077 0.1736481773 0.0
-7194.36290802 -7133.15538855 13.5 0.984807753077 0.1736481773 0.0
-7194.36290802 -7133.15538855 22.5 0.984807753077 0.1736481773 0.0
-7194.36290802 -7133.15538855 31.5 0.984807753077 0.1736481773 0.0
-7194.36290802 -7133.15538855 40.5 0.984807753077 0.1736481773 0.0
-7194.36290802 -7133.15538855 49.5 0.984807753077 0.1736481773 0.0
-7194.36290802 -7133.15538855 58.5 0.984807753077 0.1736481773 0.0
-7194.36290802 -7133.15538855 65.9999980346 0.984807753077 0.1736481773 0.0
-7195.40479703 -7127.24654236 4.5 0.984807753077 0.1736481773 0.0
-7195.40479703 -7127.24654236 13.5 0.984807753077 0.1736481773 0.0
-7195.40479703 -7127.24654236 22.5 0.984807753077 0.1736481773 0.0
-7195.40479703 -7127.24654236 31.5 0.984807753077 0.1736481773 0.0
-7195.40479703 -7127.24654236 40.5 0.984807753077 0.1736481773 0.0
-7195.40479703 -7127.24654236 49.5 0.984807753077 0.1736481773 0.0
-7195.40479703 -7127.24654236 58.5 0.984807753077 0.1736481773 0.0
-7195.40479703 -7127.24654236 65.9999980346 0.984807753077 0.1736481773 0.0
-7196.54403201 -7138.11955358 64.4999960693 0.173648177773 -0.984807752993 -2.06911367156e-23
-7196.54403201 -7138.11955358 55.4999960693 0.173648177773 -0.984807752993 -2.06911367156e-23
-7196.54403201 -7138.11955358 46.4999960693 0.173648177773 -0.984807752993 -2.06911367156e-23
-7196.54403201 -7138.11955358 37.4999960693 0.173648177773 -0.984807752993 -2.06911367156e-23
-7196.54403201 -7138.11955358 28.4999960693 0.173648177773 -0.984807752993 -2.06911367156e-23
-7196.54403201 -7138.11955358 19.4999960693 0.173648177773 -0.984807752993 -2.06911367156e-23
-7196.54403201 -7138.11955358 10.4999960693 0.173648177773 -0.984807752993 -2.06911367156e-23
-7196.54403201 -7138.11955358 2.99999803465 0.173648177773 -0.984807752993 -2.06911367156e-23
-7198.70893281 -7143.06054949 4.5 0.984807752981 0.173648177842 -0.0
-7198.70893281 -7143.06054949 13.5 0.984807752981 0.173648177842 -0.0
-7198.70893281 -7143.06054949 22.5 0.984807752981 0.173648177842 -0.0
-7198.70893281 -7143.06054949 31.5 0.984807752981 0.173648177842 -0.0
-7198.70893281 -7143.06054949 40.5 0.984807752981 0.173648177842 -0.0
-7198.70893281 -7143.06054949 49.5 0.984807752981 0.173648177842 -0.0
-7198.70893281 -7143.06054949 58.5 0.984807752981 0.173648177842 -0.0
-7198.70893281 -7143.06054949 65.9999980346 0.984807752981 0.173648177842 -0.0
-7197.84069215 -7147.98458695 4.5 0.984807752981 0.173648177842 -0.0
-7197.84069215 -7147.98458695 13.5 0.984807752981 0.173648177842 -0.0
-7197.84069215 -7147.98458695 22.5 0.984807752981 0.173648177842 -0.0
-7197.84069215 -7147.98458695 31.5 0.984807752981 0.173648177842 -0.0
-7197.84069215 -7147.98458695 40.5 0.984807752981 0.173648177842 -0.0
-7197.84069215 -7147.98458695 49.5 0.984807752981 0.173648177842 -0.0
-7197.84069215 -7147.98458695 58.5 0.984807752981 0.173648177842 -0.0
-7197.84069215 -7147.98458695 65.9999980346 0.984807752981 0.173648177842 -0.0
-7194.81102366 -7147.94793235 64.4999960693 -0.173648177773 0.984807752993 1.40104737574e-22
-7194.81102366 -7147.94793235 55.4999960693 -0.173648177773 0.984807752993 1.40104737574e-22
-7194.81102366 -7147.94793235 46.4999960693 -0.173648177773 0.984807752993 1.40104737574e-22
-7194.81102366 -7147.94793235 37.4999960693 -0.173648177773 0.984807752993 1.40104737574e-22
-7194.81102366 -7147.94793235 28.4999960693 -0.173648177773 0.984807752993 1.40104737574e-22
-7194.81102366 -7147.94793235 19.4999960693 -0.173648177773 0.984807752993 1.40104737574e-22
-7194.81102366 -7147.94793235 10.4999960693 -0.173648177773 0.984807752993 1.40104737574e-22
-7194.81102366 -7147.94793235 2.99999803465 -0.173648177773 0.984807752993 1.40104737574e-22
-7190.54264653 -7154.82116806 4.5 0.984807752977 0.173648177869 0.0
-7190.54264653 -7154.82116806 13.5 0.984807752977 0.173648177869 0.0
-7190.54264653 -7154.82116806 22.5 0.984807752977 0.173648177869 0.0
-7190.54264653 -7154.82116806 31.5 0.984807752977 0.173648177869 0.0
-7190.54264653 -7154.82116806 40.5 0.984807752977 0.173648177869 0.0
-7190.54264653 -7154.82116806 49.5 0.984807752977 0.173648177869 0.0
-7190.54264653 -7154.82116806 58.5 0.984807752977 0.173648177869 0.0
-7190.54264653 -7154.82116806 65.9999980346 0.984807752977 0.173648177869 0.0
-7191.58453662 -7148.91231577 4.5 0.984807752977 0.173648177869 0.0
-7191.58453662 -7148.91231577 13.5 0.984807752977 0.173648177869 0.0
-7191.58453662 -7148.91231577 22.5 0.984807752977 0.173648177869 0.0
-7191.58453662 -7148.91231577 31.5 0.984807752977 0.173648177869 0.0
-7191.58453662 -7148.91231577 40.5 0.984807752977 0.173648177869 0.0
-7191.58453662 -7148.91231577 49.5 0.984807752977 0.173648177869 0.0
-7191.58453662 -7148.91231577 58.5 0.984807752977 0.173648177869 0.0
-7191.58453662 -7148.91231577 65.9999980346 0.984807752977 0.173648177869 0.0
-7194.20097622 -7160.04580431 64.4999960693 0.173648177691 -0.984807753008 0.0
-7194.20097622 -7160.04580431 55.4999960693 0.173648177691 -0.984807753008 0.0
-7194.20097622 -7160.04580431 46.4999960693 0.173648177691 -0.984807753008 0.0
-7194.20097622 -7160.04580431 37.4999960693 0.173648177691 -0.984807753008 0.0
-7194.20097622 -7160.04580431 28.4999960693 0.173648177691 -0.984807753008 0.0
-7194.20097622 -7160.04580431 19.4999960693 0.173648177691 -0.984807753008 0.0
-7194.20097622 -7160.04580431 10.4999960693 0.173648177691 -0.984807753008 0.0
-7194.20097622 -7160.04580431 2.99999803465 0.173648177691 -0.984807753008 0.0
-7200.10982698 -7161.08769412 64.4999960693 0.173648177691 -0.984807753008 0.0
-7200.10982698 -7161.08769412 55.4999960693 0.173648177691 -0.984807753008 0.0
-7200.10982698 -7161.08769412 46.4999960693 0.173648177691 -0.984807753008 0.0
-7200.10982698 -7161.08769412 37.4999960693 0.173648177691 -0.984807753008 0.0
-7200.10982698 -7161.08769412 28.4999960693 0.173648177691 -0.984807753008 0.0
-7200.10982698 -7161.08769412 19.4999960693 0.173648177691 -0.984807753008 0.0
-7200.10982698 -7161.08769412 10.4999960693 0.173648177691 -0.984807753008 0.0
-7200.10982698 -7161.08769412 2.99999803465 0.173648177691 -0.984807753008 0.0
-7202.119573 -7158.38562634 4.5 -0.984807753044 -0.173648177488 0.0
-7202.119573 -7158.38562634 13.5 -0.984807753044 -0.173648177488 0.0
-7202.119573 -7158.38562634 22.5 -0.984807753044 -0.173648177488 0.0
-7202.119573 -7158.38562634 31.5 -0.984807753044 -0.173648177488 0.0
-7202.119573 -7158.38562634 40.5 -0.984807753044 -0.173648177488 0.0
-7202.119573 -7158.38562634 49.5 -0.984807753044 -0.173648177488 0.0
-7202.119573 -7158.38562634 58.5 -0.984807753044 -0.173648177488 0.0
-7202.119573 -7158.38562634 65.9999980346 -0.984807753044 -0.173648177488 0.0
-7207.06056891 -7156.22072554 64.4999960693 0.173648177884 -0.984807752974 0.0
-7207.06056891 -7156.22072554 55.4999960693 0.173648177884 -0.984807752974 0.0
-7207.06056891 -7156.22072554 46.4999960693 0.173648177884 -0.984807752974 0.0
-7207.06056891 -7156.22072554 37.4999960693 0.173648177884 -0.984807752974 0.0
-7207.06056891 -7156.22072554 28.4999960693 0.173648177884 -0.984807752974 0.0
-7207.06056891 -7156.22072554 19.4999960693 0.173648177884 -0.984807752974 0.0
-7207.06056891 -7156.22072554 10.4999960693 0.173648177884 -0.984807752974 0.0
-7207.06056891 -7156.22072554 2.99999803465 0.173648177884 -0.984807752974 0.0
-7211.9846079 -7157.08896647 64.4999960693 0.173648177884 -0.984807752974 0.0
-7211.9846079 -7157.08896647 55.4999960693 0.173648177884 -0.984807752974 0.0
-7211.9846079 -7157.08896647 46.4999960693 0.173648177884 -0.984807752974 0.0
-7211.9846079 -7157.08896647 37.4999960693 0.173648177884 -0.984807752974 0.0
-7211.9846079 -7157.08896647 28.4999960693 0.173648177884 -0.984807752974 0.0
-7211.9846079 -7157.08896647 19.4999960693 0.173648177884 -0.984807752974 0.0
-7211.9846079 -7157.08896647 10.4999960693 0.173648177884 -0.984807752974 0.0
-7211.9846079 -7157.08896647 2.99999803465 0.173648177884 -0.984807752974 0.0
-7211.94795483 -7160.11863523 4.5 0.984807752993 0.173648177773 0.0
-7211.94795483 -7160.11863523 13.5 0.984807752993 0.173648177773 0.0
-7211.94795483 -7160.11863523 22.5 0.984807752993 0.173648177773 0.0
-7211.94795483 -7160.11863523 31.5 0.984807752993 0.173648177773 0.0
-7211.94795483 -7160.11863523 40.5 0.984807752993 0.173648177773 0.0
-7211.94795483 -7160.11863523 49.5 0.984807752993 0.173648177773 0.0
-7211.94795483 -7160.11863523 58.5 0.984807752993 0.173648177773 0.0
-7211.94795483 -7160.11863523 65.9999980346 0.984807752993 0.173648177773 0.0
-7215.86675574 -7163.86606579 64.4999960693 0.17364817825 -0.984807752909 -1.83663098769e-22
-7215.86675574 -7163.86606579 55.4999960693 0.17364817825 -0.984807752909 -1.83663098769e-22
-7215.86675574 -7163.86606579 46.4999960693 0.17364817825 -0.984807752909 -1.83663098769e-22
-7215.86675574 -7163.86606579 37.4999960693 0.17364817825 -0.984807752909 -1.83663098769e-22
-7215.86675574 -7163.86606579 28.4999960693 0.17364817825 -0.984807752909 -1.83663098769e-22
-7215.86675574 -7163.86606579 19.4999960693 0.17364817825 -0.984807752909 -1.83663098769e-22
-7215.86675574 -7163.86606579 10.4999960693 0.17364817825 -0.984807752909 -1.83663098769e-22
-7215.86675574 -7163.86606579 2.99999803465 0.17364817825 -0.984807752909 -1.83663098769e-22
-7221.77560192 -7164.9079548 64.4999960693 0.17364817825 -0.984807752909 -1.83663098769e-22
-7221.77560192 -7164.9079548 55.4999960693 0.17364817825 -0.984807752909 -1.83663098769e-22
-7221.77560192 -7164.9079548 46.4999960693 0.17364817825 -0.984807752909 -1.83663098769e-22
-7221.77560192 -7164.9079548 37.4999960693 0.17364817825 -0.984807752909 -1.83663098769e-22
-7221.77560192 -7164.9079548 28.4999960693 0.17364817825 -0.984807752909 -1.83663098769e-22
-7221.77560192 -7164.9079548 19.4999960693 0.17364817825 -0.984807752909 -1.83663098769e-22
-7221.77560192 -7164.9079548 10.4999960693 0.17364817825 -0.984807752909 -1.83663098769e-22
-7221.77560192 -7164.9079548 2.99999803465 0.17364817825 -0.984807752909 -1.83663098769e-22
-7224.56676113 -7157.77424572 4.5 -0.984807753119 -0.173648177061 0.0
-7224.56676113 -7157.77424572 13.5 -0.984807753119 -0.173648177061 0.0
-7224.56676113 -7157.77424572 22.5 -0.984807753119 -0.173648177061 0.0
-7224.56676113 -7157.77424572 31.5 -0.984807753119 -0.173648177061 0.0
-7224.56676113 -7157.77424572 40.5 -0.984807753119 -0.173648177061 0.0
-7224.56676113 -7157.77424572 49.5 -0.984807753119 -0.173648177061 0.0
-7224.56676113 -7157.77424572 58.5 -0.984807753119 -0.173648177061 0.0
-7224.56676113 -7157.77424572 65.9999980346 -0.984807753119 -0.173648177061 0.0
-7223.52487105 -7163.68309801 4.5 -0.984807753119 -0.173648177061 0.0
-7223.52487105 -7163.68309801 13.5 -0.984807753119 -0.173648177061 0.0
-7223.52487105 -7163.68309801 22.5 -0.984807753119 -0.173648177061 0.0
-7223.52487105 -7163.68309801 31.5 -0.984807753119 -0.173648177061 0.0
-7223.52487105 -7163.68309801 40.5 -0.984807753119 -0.173648177061 0.0
-7223.52487105 -7163.68309801 49.5 -0.984807753119 -0.173648177061 0.0
-7223.52487105 -7163.68309801 58.5 -0.984807753119 -0.173648177061 0.0
-7223.52487105 -7163.68309801 65.9999980346 -0.984807753119 -0.173648177061 0.0
-7142.81008482 -7112.54401403 4.5 0.98480775296 0.173648177965 -0.0
-7142.81008482 -7112.54401403 13.5 0.98480775296 0.173648177965 -0.0
-7142.81008482 -7112.54401403 22.5 0.98480775296 0.173648177965 -0.0
-7142.81008482 -7112.54401403 31.5 0.98480775296 0.173648177965 -0.0
-7142.81008482 -7112.54401403 40.5 0.98480775296 0.173648177965 -0.0
-7142.81008482 -7112.54401403 49.5 0.98480775296 0.173648177965 -0.0
-7142.81008482 -7112.54401403 58.5 0.98480775296 0.173648177965 -0.0
-7142.81008482 -7112.54401403 65.9999980346 0.98480775296 0.173648177965 -0.0
-7137.86908998 -7114.70890873 64.4999960693 -0.173648177884 0.984807752974 0.0
-7137.86908998 -7114.70890873 55.4999960693 -0.173648177884 0.984807752974 0.0
-7137.86908998 -7114.70890873 46.4999960693 -0.173648177884 0.984807752974 0.0
-7137.86908998 -7114.70890873 37.4999960693 -0.173648177884 0.984807752974 0.0
-7137.86908998 -7114.70890873 28.4999960693 -0.173648177884 0.984807752974 0.0
-7137.86908998 -7114.70890873 19.4999960693 -0.173648177884 0.984807752974 0.0
-7137.86908998 -7114.70890873 10.4999960693 -0.173648177884 0.984807752974 0.0
-7137.86908998 -7114.70890873 2.99999803465 -0.173648177884 0.984807752974 0.0
-7132.94505099 -7113.8406678 64.4999960693 -0.173648177884 0.984807752974 0.0
-7132.94505099 -7113.8406678 55.4999960693 -0.173648177884 0.984807752974 0.0
-7132.94505099 -7113.8406678 46.4999960693 -0.173648177884 0.984807752974 0.0
-7132.94505099 -7113.8406678 37.4999960693 -0.173648177884 0.984807752974 0.0
-7132.94505099 -7113.8406678 28.4999960693 -0.173648177884 0.984807752974 0.0
-7132.94505099 -7113.8406678 19.4999960693 -0.173648177884 0.984807752974 0.0
-7132.94505099 -7113.8406678 10.4999960693 -0.173648177884 0.984807752974 0.0
-7132.94505099 -7113.8406678 2.99999803465 -0.173648177884 0.984807752974 0.0
-7132.98170298 -7110.81100514 4.5 -0.984807752909 -0.17364817825 0.0
-7132.98170298 -7110.81100514 13.5 -0.984807752909 -0.17364817825 0.0
-7132.98170298 -7110.81100514 22.5 -0.984807752909 -0.17364817825 0.0
-7132.98170298 -7110.81100514 31.5 -0.984807752909 -0.17364817825 0.0
-7132.98170298 -7110.81100514 40.5 -0.984807752909 -0.17364817825 0.0
-7132.98170298 -7110.81100514 49.5 -0.984807752909 -0.17364817825 0.0
-7132.98170298 -7110.81100514 58.5 -0.984807752909 -0.17364817825 0.0
-7132.98170298 -7110.81100514 65.9999980346 -0.984807752909 -0.17364817825 0.0
-7126.10847842 -7106.54263627 64.4999960693 -0.17364817825 0.984807752909 -0.0
-7126.10847842 -7106.54263627 55.4999960693 -0.17364817825 0.984807752909 -0.0
-7126.10847842 -7106.54263627 46.4999960693 -0.17364817825 0.984807752909 -0.0
-7126.10847842 -7106.54263627 37.4999960693 -0.17364817825 0.984807752909 -0.0
-7126.10847842 -7106.54263627 28.4999960693 -0.17364817825 0.984807752909 -0.0
-7126.10847842 -7106.54263627 19.4999960693 -0.17364817825 0.984807752909 -0.0
-7126.10847842 -7106.54263627 10.4999960693 -0.17364817825 0.984807752909 -0.0
-7126.10847842 -7106.54263627 2.99999803465 -0.17364817825 0.984807752909 -0.0
-7132.0173246 -7107.58452528 64.4999960693 -0.17364817825 0.984807752909 -0.0
-7132.0173246 -7107.58452528 55.4999960693 -0.17364817825 0.984807752909 -0.0
-7132.0173246 -7107.58452528 46.4999960693 -0.17364817825 0.984807752909 -0.0
-7132.0173246 -7107.58452528 37.4999960693 -0.17364817825 0.984807752909 -0.0
-7132.0173246 -7107.58452528 28.4999960693 -0.17364817825 0.984807752909 -0.0
-7132.0173246 -7107.58452528 19.4999960693 -0.17364817825 0.984807752909 -0.0
-7132.0173246 -7107.58452528 10.4999960693 -0.17364817825 0.984807752909 -0.0
-7132.0173246 -7107.58452528 2.99999803465 -0.17364817825 0.984807752909 -0.0
-7120.88384217 -7110.20096596 4.5 0.984807753052 0.173648177442 -0.0
-7120.88384217 -7110.20096596 13.5 0.984807753052 0.173648177442 -0.0
