-7122.72984509 -7352.71991938 58.5 0.939692620971 0.342020142816 0.0
-7122.72984509 -7352.71991938 67.5 0.939692620971 0.342020142816 0.0
-7122.72984509 -7352.71991938 76.5 0.939692620971 0.342020142816 0.0
-7122.72984509 -7352.71991938 82.4999976074 0.939692620971 0.342020142816 0.0
-7124.78196371 -7347.0817698 4.5 0.939692620971 0.342020142816 0.0
-7124.78196371 -7347.0817698 13.5 0.939692620971 0.342020142816 0.0
-7124.78196371 -7347.0817698 22.5 0.939692620971 0.342020142816 0.0
-7124.78196371 -7347.0817698 31.5 0.939692620971 0.342020142816 0.0
-7124.78196371 -7347.0817698 40.5 0.939692620971 0.342020142816 0.0
-7124.78196371 -7347.0817698 49.5 0.939692620971 0.342020142816 0.0
-7124.78196371 -7347.0817698 58.5 0.939692620971 0.342020142816 0.0
-7124.78196371 -7347.0817698 67.5 0.939692620971 0.342020142816 0.0
-7124.78196371 -7347.0817698 76.5 0.939692620971 0.342020142816 0.0
-7124.78196371 -7347.0817698 82.4999976074 0.939692620971 0.342020142816 0.0
-7124.01580887 -7357.98741368 79.4999952148 0.342020143066 -0.939692620881 4.02502115449e-21
-7124.01580887 -7357.98741368 70.4999952148 0.342020143066 -0.939692620881 4.02502115449e-21
-7124.01580887 -7357.98741368 61.4999952148 0.342020143066 -0.939692620881 4.02502115449e-21
-7124.01580887 -7357.98741368 52.4999952148 0.342020143066 -0.939692620881 4.02502115449e-21
-7124.01580887 -7357.98741368 43.4999952148 0.342020143066 -0.939692620881 4.02502115449e-21
-7124.01580887 -7357.98741368 34.4999952148 0.342020143066 -0.939692620881 4.02502115449e-21
-7124.01580887 -7357.98741368 25.4999952148 0.342020143066 -0.939692620881 4.02502115449e-21
-7124.01580887 -7357.98741368 16.4999952148 0.342020143066 -0.939692620881 4.02502115449e-21
-7124.01580887 -7357.98741368 7.4999952148 0.342020143066 -0.939692620881 4.02502115449e-21
-7124.01580887 -7357.98741368 1.4999976074 0.342020143066 -0.939692620881 4.02502115449e-21
-7124.94779572 -7364.1689755 4.5 0.939692620839 0.342020143181 0.0
-7124.94779572 -7364.1689755 13.5 0.939692620839 0.342020143181 0.0
-7124.94779572 -7364.1689755 22.5 0.939692620839 0.342020143181 0.0
-7124.94779572 -7364.1689755 31.5 0.939692620839 0.342020143181 0.0
-7124.94779572 -7364.1689755 40.5 0.939692620839 0.342020143181 0.0
-7124.94779572 -7364.1689755 49.5 0.939692620839 0.342020143181 0.0
-7124.94779572 -7364.1689755 58.5 0.939692620839 0.342020143181 0.0
-7124.94779572 -7364.1689755 67.5 0.939692620839 0.342020143181 0.0
-7124.94779572 -7364.1689755 76.5 0.939692620839 0.342020143181 0.0
-7124.94779572 -7364.1689755 82.4999976074 0.939692620839 0.342020143181 0.0
-7126.6578981 -7359.47050781 4.5 0.939692620839 0.342020143181 0.0
-7126.6578981 -7359.47050781 13.5 0.939692620839 0.342020143181 0.0
-7126.6578981 -7359.47050781 22.5 0.939692620839 0.342020143181 0.0
-7126.6578981 -7359.47050781 31.5 0.939692620839 0.342020143181 0.0
-7126.6578981 -7359.47050781 40.5 0.939692620839 0.342020143181 0.0
-7126.6578981 -7359.47050781 49.5 0.939692620839 0.342020143181 0.0
-7126.6578981 -7359.47050781 58.5 0.939692620839 0.342020143181 0.0
-7126.6578981 -7359.47050781 67.5 0.939692620839 0.342020143181 0.0
-7126.6578981 -7359.47050781 76.5 0.939692620839 0.342020143181 0.0
-7126.6578981 -7359.47050781 82.4999976074 0.939692620839 0.342020143181 0.0
-7120.6024445 -7367.3655552 79.4999952148 -0.342020144537 0.939692620345 0.0
-7120.6024445 -7367.3655552 70.4999952148 -0.342020144537 0.939692620345 0.0
-7120.6024445 -7367.3655552 61.4999952148 -0.342020144537 0.939692620345 0.0
-7120.6024445 -7367.3655552 52.4999952148 -0.342020144537 0.939692620345 0.0
-7120.6024445 -7367.3655552 43.4999952148 -0.342020144537 0.939692620345 0.0
-7120.6024445 -7367.3655552 34.4999952148 -0.342020144537 0.939692620345 0.0
-7120.6024445 -7367.3655552 25.4999952148 -0.342020144537 0.939692620345 0.0
-7120.6024445 -7367.3655552 16.4999952148 -0.342020144537 0.939692620345 0.0
-7120.6024445 -7367.3655552 7.4999952148 -0.342020144537 0.939692620345 0.0
-7120.6024445 -7367.3655552 1.4999976074 -0.342020144537 0.939692620345 0.0
-7115.20539459 -7373.39317722 4.5 0.939692620814 0.342020143247 0.0
-7115.20539459 -7373.39317722 13.5 0.939692620814 0.342020143247 0.0
-7115.20539459 -7373.39317722 22.5 0.939692620814 0.342020143247 0.0
-7115.20539459 -7373.39317722 31.5 0.939692620814 0.342020143247 0.0
-7115.20539459 -7373.39317722 40.5 0.939692620814 0.342020143247 0.0
-7115.20539459 -7373.39317722 49.5 0.939692620814 0.342020143247 0.0
-7115.20539459 -7373.39317722 58.5 0.939692620814 0.342020143247 0.0
-7115.20539459 -7373.39317722 67.5 0.939692620814 0.342020143247 0.0
-7115.20539459 -7373.39317722 76.5 0.939692620814 0.342020143247 0.0
-7115.20539459 -7373.39317722 82.4999976074 0.939692620814 0.342020143247 0.0
-7117.25751745 -7367.75501599 4.5 0.939692620814 0.342020143247 0.0
-7117.25751745 -7367.75501599 13.5 0.939692620814 0.342020143247 0.0
-7117.25751745 -7367.75501599 22.5 0.939692620814 0.342020143247 0.0
-7117.25751745 -7367.75501599 31.5 0.939692620814 0.342020143247 0.0
-7117.25751745 -7367.75501599 40.5 0.939692620814 0.342020143247 0.0
-7117.25751745 -7367.75501599 49.5 0.939692620814 0.342020143247 0.0
-7117.25751745 -7367.75501599 58.5 0.939692620814 0.342020143247 0.0
-7117.25751745 -7367.75501599 67.5 0.939692620814 0.342020143247 0.0
-7117.25751745 -7367.75501599 76.5 0.939692620814 0.342020143247 0.0
-7117.25751745 -7367.75501599 82.4999976074 0.939692620814 0.342020143247 0.0
-7117.90089746 -7379.17370179 79.4999952148 0.342020143066 -0.939692620881 0.0
-7117.90089746 -7379.17370179 70.4999952148 0.342020143066 -0.939692620881 0.0
-7117.90089746 -7379.17370179 61.4999952148 0.342020143066 -0.939692620881 0.0
-7117.90089746 -7379.17370179 52.4999952148 0.342020143066 -0.939692620881 0.0
-7117.90089746 -7379.17370179 43.4999952148 0.342020143066 -0.939692620881 0.0
-7117.90089746 -7379.17370179 34.4999952148 0.342020143066 -0.939692620881 0.0
-7117.90089746 -7379.17370179 25.4999952148 0.342020143066 -0.939692620881 0.0
-7117.90089746 -7379.17370179 16.4999952148 0.342020143066 -0.939692620881 0.0
-7117.90089746 -7379.17370179 7.4999952148 0.342020143066 -0.939692620881 0.0
-7117.90089746 -7379.17370179 1.4999976074 0.342020143066 -0.939692620881 0.0
-7123.53905286 -7381.22582253 79.4999952148 0.342020143066 -0.939692620881 0.0
-7123.53905286 -7381.22582253 70.4999952148 0.342020143066 -0.939692620881 0.0
-7123.53905286 -7381.22582253 61.4999952148 0.342020143066 -0.939692620881 0.0
-7123.53905286 -7381.22582253 52.4999952148 0.342020143066 -0.939692620881 0.0
-7123.53905286 -7381.22582253 43.4999952148 0.342020143066 -0.939692620881 0.0
-7123.53905286 -7381.22582253 34.4999952148 0.342020143066 -0.939692620881 0.0
-7123.53905286 -7381.22582253 25.4999952148 0.342020143066 -0.939692620881 0.0
-7123.53905286 -7381.22582253 16.4999952148 0.342020143066 -0.939692620881 0.0
-7123.53905286 -7381.22582253 7.4999952148 0.342020143066 -0.939692620881 0.0
-7123.53905286 -7381.22582253 1.4999976074 0.342020143066 -0.939692620881 0.0
-7125.98747003 -7378.91379529 4.5 -0.939692620985 -0.342020142779 0.0
-7125.98747003 -7378.91379529 13.5 -0.939692620985 -0.342020142779 0.0
-7125.98747003 -7378.91379529 22.5 -0.939692620985 -0.342020142779 0.0
-7125.98747003 -7378.91379529 31.5 -0.939692620985 -0.342020142779 0.0
-7125.98747003 -7378.91379529 40.5 -0.939692620985 -0.342020142779 0.0
-7125.98747003 -7378.91379529 49.5 -0.939692620985 -0.342020142779 0.0
-7125.98747003 -7378.91379529 58.5 -0.939692620985 -0.342020142779 0.0
-7125.98747003 -7378.91379529 67.5 -0.939692620985 -0.342020142779 0.0
-7125.98747003 -7378.91379529 76.5 -0.939692620985 -0.342020142779 0.0
-7125.98747003 -7378.91379529 82.4999976074 -0.939692620985 -0.342020142779 0.0
-7132.16902418 -7377.98180234 79.4999952148 0.342020142956 -0.93969262092 4.2970475353e-21
-7132.16902418 -7377.98180234 70.4999952148 0.342020142956 -0.93969262092 4.2970475353e-21
-7132.16902418 -7377.98180234 61.4999952148 0.342020142956 -0.93969262092 4.2970475353e-21
-7132.16902418 -7377.98180234 52.4999952148 0.342020142956 -0.93969262092 4.2970475353e-21
-7132.16902418 -7377.98180234 43.4999952148 0.342020142956 -0.93969262092 4.2970475353e-21
-7132.16902418 -7377.98180234 34.4999952148 0.342020142956 -0.93969262092 4.2970475353e-21
-7132.16902418 -7377.98180234 25.4999952148 0.342020142956 -0.93969262092 4.2970475353e-21
-7132.16902418 -7377.98180234 16.4999952148 0.342020142956 -0.93969262092 4.2970475353e-21
-7132.16902418 -7377.98180234 7.4999952148 0.342020142956 -0.93969262092 4.2970475353e-21
-7132.16902418 -7377.98180234 1.4999976074 0.342020142956 -0.93969262092 4.2970475353e-21
-7127.47056086 -7376.27170155 79.4999952148 0.342020142956 -0.93969262092 4.2970475353e-21
-7127.47056086 -7376.27170155 70.4999952148 0.342020142956 -0.93969262092 4.2970475353e-21
-7127.47056086 -7376.27170155 61.4999952148 0.342020142956 -0.93969262092 4.2970475353e-21
-7127.47056086 -7376.27170155 52.4999952148 0.342020142956 -0.93969262092 4.2970475353e-21
-7127.47056086 -7376.27170155 43.4999952148 0.342020142956 -0.93969262092 4.2970475353e-21
-7127.47056086 -7376.27170155 34.4999952148 0.342020142956 -0.93969262092 4.2970475353e-21
-7127.47056086 -7376.27170155 25.4999952148 0.342020142956 -0.93969262092 4.2970475353e-21
-7127.47056086 -7376.27170155 16.4999952148 0.342020142956 -0.93969262092 4.2970475353e-21
-7127.47056086 -7376.27170155 7.4999952148 0.342020142956 -0.93969262092 4.2970475353e-21
-7127.47056086 -7376.27170155 1.4999976074 0.342020142956 -0.93969262092 4.2970475353e-21
-7135.36560282 -7382.32715647 4.5 0.939692620985 0.342020142779 0.0
-7135.36560282 -7382.32715647 13.5 0.939692620985 0.342020142779 0.0
-7135.36560282 -7382.32715647 22.5 0.939692620985 0.342020142779 0.0
-7135.36560282 -7382.32715647 31.5 0.939692620985 0.342020142779 0.0
-7135.36560282 -7382.32715647 40.5 0.939692620985 0.342020142779 0.0
-7135.36560282 -7382.32715647 49.5 0.939692620985 0.342020142779 0.0
-7135.36560282 -7382.32715647 58.5 0.939692620985 0.342020142779 0.0
-7135.36560282 -7382.32715647 67.5 0.939692620985 0.342020142779 0.0
-7135.36560282 -7382.32715647 76.5 0.939692620985 0.342020142779 0.0
-7135.36560282 -7382.32715647 82.4999976074 0.939692620985 0.342020142779 0.0
-7138.57413491 -7386.69814486 79.4999952148 0.342020143453 -0.93969262074 0.0
-7138.57413491 -7386.69814486 70.4999952148 0.342020143453 -0.93969262074 0.0
-7138.57413491 -7386.69814486 61.4999952148 0.342020143453 -0.93969262074 0.0
-7138.57413491 -7386.69814486 52.4999952148 0.342020143453 -0.93969262074 0.0
-7138.57413491 -7386.69814486 43.4999952148 0.342020143453 -0.93969262074 0.0
-7138.57413491 -7386.69814486 34.4999952148 0.342020143453 -0.93969262074 0.0
-7138.57413491 -7386.69814486 25.4999952148 0.342020143453 -0.93969262074 0.0
-7138.57413491 -7386.69814486 16.4999952148 0.342020143453 -0.93969262074 0.0
-7138.57413491 -7386.69814486 7.4999952148 0.342020143453 -0.93969262074 0.0
-7138.57413491 -7386.69814486 1.4999976074 0.342020143453 -0.93969262074 0.0
-7144.21229469 -7388.7502672 79.4999952148 0.342020143453 -0.93969262074 0.0
-7144.21229469 -7388.7502672 70.4999952148 0.342020143453 -0.93969262074 0.0
-7144.21229469 -7388.7502672 61.4999952148 0.342020143453 -0.93969262074 0.0
-7144.21229469 -7388.7502672 52.4999952148 0.342020143453 -0.93969262074 0.0
-7144.21229469 -7388.7502672 43.4999952148 0.342020143453 -0.93969262074 0.0
-7144.21229469 -7388.7502672 34.4999952148 0.342020143453 -0.93969262074 0.0
-7144.21229469 -7388.7502672 25.4999952148 0.342020143453 -0.93969262074 0.0
-7144.21229469 -7388.7502672 16.4999952148 0.342020143453 -0.93969262074 0.0
-7144.21229469 -7388.7502672 7.4999952148 0.342020143453 -0.93969262074 0.0
-7144.21229469 -7388.7502672 1.4999976074 0.342020143453 -0.93969262074 0.0
-7148.19980988 -7382.20961649 4.5 -0.939692620717 -0.342020143515 1.50000032219e-21
-7148.19980988 -7382.20961649 13.5 -0.939692620717 -0.342020143515 1.50000032219e-21
-7148.19980988 -7382.20961649 22.5 -0.939692620717 -0.342020143515 1.50000032219e-21
-7148.19980988 -7382.20961649 31.5 -0.939692620717 -0.342020143515 1.50000032219e-21
-7148.19980988 -7382.20961649 40.5 -0.939692620717 -0.342020143515 1.50000032219e-21
-7148.19980988 -7382.20961649 49.5 -0.939692620717 -0.342020143515 1.50000032219e-21
-7148.19980988 -7382.20961649 58.5 -0.939692620717 -0.342020143515 1.50000032219e-21
-7148.19980988 -7382.20961649 67.5 -0.939692620717 -0.342020143515 1.50000032219e-21
-7148.19980988 -7382.20961649 76.5 -0.939692620717 -0.342020143515 1.50000032219e-21
-7148.19980988 -7382.20961649 82.4999976074 -0.939692620717 -0.342020143515 1.50000032219e-21
-7146.14768702 -7387.84777772 4.5 -0.939692620717 -0.342020143515 1.50000032219e-21
-7146.14768702 -7387.84777772 13.5 -0.939692620717 -0.342020143515 1.50000032219e-21
-7146.14768702 -7387.84777772 22.5 -0.939692620717 -0.342020143515 1.50000032219e-21
-7146.14768702 -7387.84777772 31.5 -0.939692620717 -0.342020143515 1.50000032219e-21
-7146.14768702 -7387.84777772 40.5 -0.939692620717 -0.342020143515 1.50000032219e-21
-7146.14768702 -7387.84777772 49.5 -0.939692620717 -0.342020143515 1.50000032219e-21
-7146.14768702 -7387.84777772 58.5 -0.939692620717 -0.342020143515 1.50000032219e-21
-7146.14768702 -7387.84777772 67.5 -0.939692620717 -0.342020143515 1.50000032219e-21
-7146.14768702 -7387.84777772 76.5 -0.939692620717 -0.342020143515 1.50000032219e-21
-7146.14768702 -7387.84777772 82.4999976074 -0.939692620717 -0.342020143515 1.50000032219e-21
-7146.91384027 -7376.94212008 79.4999952148 -0.342020142493 0.939692621089 0.0
-7146.91384027 -7376.94212008 70.4999952148 -0.342020142493 0.939692621089 0.0
-7146.91384027 -7376.94212008 61.4999952148 -0.342020142493 0.939692621089 0.0
-7146.91384027 -7376.94212008 52.4999952148 -0.342020142493 0.939692621089 0.0
-7146.91384027 -7376.94212008 43.4999952148 -0.342020142493 0.939692621089 0.0
-7146.91384027 -7376.94212008 34.4999952148 -0.342020142493 0.939692621089 0.0
-7146.91384027 -7376.94212008 25.4999952148 -0.342020142493 0.939692621089 0.0
-7146.91384027 -7376.94212008 16.4999952148 -0.342020142493 0.939692621089 0.0
-7146.91384027 -7376.94212008 7.4999952148 -0.342020142493 0.939692621089 0.0
-7146.91384027 -7376.94212008 1.4999976074 -0.342020142493 0.939692621089 0.0
-7145.98184759 -7370.76055614 4.5 -0.939692620839 -0.342020143181 0.0
-7145.98184759 -7370.76055614 13.5 -0.939692620839 -0.342020143181 0.0
-7145.98184759 -7370.76055614 22.5 -0.939692620839 -0.342020143181 0.0
-7145.98184759 -7370.76055614 31.5 -0.939692620839 -0.342020143181 0.0
-7145.98184759 -7370.76055614 40.5 -0.939692620839 -0.342020143181 0.0
-7145.98184759 -7370.76055614 49.5 -0.939692620839 -0.342020143181 0.0
-7145.98184759 -7370.76055614 58.5 -0.939692620839 -0.342020143181 0.0
-7145.98184759 -7370.76055614 67.5 -0.939692620839 -0.342020143181 0.0
-7145.98184759 -7370.76055614 76.5 -0.939692620839 -0.342020143181 0.0
-7145.98184759 -7370.76055614 82.4999976074 -0.939692620839 -0.342020143181 0.0
-7144.27174521 -7375.45902383 4.5 -0.939692620839 -0.342020143181 0.0
-7144.27174521 -7375.45902383 13.5 -0.939692620839 -0.342020143181 0.0
-7144.27174521 -7375.45902383 22.5 -0.939692620839 -0.342020143181 0.0
-7144.27174521 -7375.45902383 31.5 -0.939692620839 -0.342020143181 0.0
-7144.27174521 -7375.45902383 40.5 -0.939692620839 -0.342020143181 0.0
-7144.27174521 -7375.45902383 49.5 -0.939692620839 -0.342020143181 0.0
-7144.27174521 -7375.45902383 58.5 -0.939692620839 -0.342020143181 0.0
-7144.27174521 -7375.45902383 67.5 -0.939692620839 -0.342020143181 0.0
-7144.27174521 -7375.45902383 76.5 -0.939692620839 -0.342020143181 0.0
-7144.27174521 -7375.45902383 82.4999976074 -0.939692620839 -0.342020143181 0.0
-7150.32720464 -7367.56397856 79.4999952148 0.342020142493 -0.939692621089 -2.58181174417e-21
-7150.32720464 -7367.56397856 70.4999952148 0.342020142493 -0.939692621089 -2.58181174417e-21
-7150.32720464 -7367.56397856 61.4999952148 0.342020142493 -0.939692621089 -2.58181174417e-21
-7150.32720464 -7367.56397856 52.4999952148 0.342020142493 -0.939692621089 -2.58181174417e-21
-7150.32720464 -7367.56397856 43.4999952148 0.342020142493 -0.939692621089 -2.58181174417e-21
-7150.32720464 -7367.56397856 34.4999952148 0.342020142493 -0.939692621089 -2.58181174417e-21
-7150.32720464 -7367.56397856 25.4999952148 0.342020142493 -0.939692621089 -2.58181174417e-21
-7150.32720464 -7367.56397856 16.4999952148 0.342020142493 -0.939692621089 -2.58181174417e-21
-7150.32720464 -7367.56397856 7.4999952148 0.342020142493 -0.939692621089 -2.58181174417e-21
-7150.32720464 -7367.56397856 1.4999976074 0.342020142493 -0.939692621089 -2.58181174417e-21
-7155.72425189 -7361.53638196 4.5 -0.939692620971 -0.342020142816 0.0
-7155.72425189 -7361.53638196 13.5 -0.939692620971 -0.342020142816 0.0
-7155.72425189 -7361.53638196 22.5 -0.939692620971 -0.342020142816 0.0
-7155.72425189 -7361.53638196 31.5 -0.939692620971 -0.342020142816 0.0
-7155.72425189 -7361.53638196 40.5 -0.939692620971 -0.342020142816 0.0
-7155.72425189 -7361.53638196 49.5 -0.939692620971 -0.342020142816 0.0
-7155.72425189 -7361.53638196 58.5 -0.939692620971 -0.342020142816 0.0
-7155.72425189 -7361.53638196 67.5 -0.939692620971 -0.342020142816 0.0
-7155.72425189 -7361.53638196 76.5 -0.939692620971 -0.342020142816 0.0
-7155.72425189 -7361.53638196 82.4999976074 -0.939692620971 -0.342020142816 0.0
-7153.67213327 -7367.17453154 4.5 -0.939692620971 -0.342020142816 0.0
-7153.67213327 -7367.17453154 13.5 -0.939692620971 -0.342020142816 0.0
-7153.67213327 -7367.17453154 22.5 -0.939692620971 -0.342020142816 0.0
-7153.67213327 -7367.17453154 31.5 -0.939692620971 -0.342020142816 0.0
-7153.67213327 -7367.17453154 40.5 -0.939692620971 -0.342020142816 0.0
-7153.67213327 -7367.17453154 49.5 -0.939692620971 -0.342020142816 0.0
-7153.67213327 -7367.17453154 58.5 -0.939692620971 -0.342020142816 0.0
-7153.67213327 -7367.17453154 67.5 -0.939692620971 -0.342020142816 0.0
-7153.67213327 -7367.17453154 76.5 -0.939692620971 -0.342020142816 0.0
-7153.67213327 -7367.17453154 82.4999976074 -0.939692620971 -0.342020142816 0.0
-7153.02874902 -7355.75585739 79.4999952148 -0.342020143453 0.93969262074 0.0
-7153.02874902 -7355.75585739 70.4999952148 -0.342020143453 0.93969262074 0.0
-7153.02874902 -7355.75585739 61.4999952148 -0.342020143453 0.93969262074 0.0
-7153.02874902 -7355.75585739 52.4999952148 -0.342020143453 0.93969262074 0.0
-7153.02874902 -7355.75585739 43.4999952148 -0.342020143453 0.93969262074 0.0
-7153.02874902 -7355.75585739 34.4999952148 -0.342020143453 0.93969262074 0.0
-7153.02874902 -7355.75585739 25.4999952148 -0.342020143453 0.93969262074 0.0
-7153.02874902 -7355.75585739 16.4999952148 -0.342020143453 0.93969262074 0.0
-7153.02874902 -7355.75585739 7.4999952148 -0.342020143453 0.93969262074 0.0
-7153.02874902 -7355.75585739 1.4999976074 -0.342020143453 0.93969262074 0.0
-7147.39058924 -7353.70373505 79.4999952148 -0.342020143453 0.93969262074 0.0
-7147.39058924 -7353.70373505 70.4999952148 -0.342020143453 0.93969262074 0.0
-7147.39058924 -7353.70373505 61.4999952148 -0.342020143453 0.93969262074 0.0
-7147.39058924 -7353.70373505 52.4999952148 -0.342020143453 0.93969262074 0.0
-7147.39058924 -7353.70373505 43.4999952148 -0.342020143453 0.93969262074 0.0
-7147.39058924 -7353.70373505 34.4999952148 -0.342020143453 0.93969262074 0.0
-7147.39058924 -7353.70373505 25.4999952148 -0.342020143453 0.93969262074 0.0
-7147.39058924 -7353.70373505 16.4999952148 -0.342020143453 0.93969262074 0.0
-7147.39058924 -7353.70373505 7.4999952148 -0.342020143453 0.93969262074 0.0
-7147.39058924 -7353.70373505 1.4999976074 -0.342020143453 0.93969262074 0.0
-7294.91385129 -7376.94212114 25.499998291 -0.342020142243 0.93969262118 -5.03037494161e-21
-7294.91385129 -7376.94212114 16.499998291 -0.342020142243 0.93969262118 -5.03037494161e-21
-7294.91385129 -7376.94212114 7.499998291 -0.342020142243 0.93969262118 -5.03037494161e-21
-7294.91385129 -7376.94212114 1.4999991455 -0.342020142243 0.93969262118 -5.03037494161e-21
-7293.63983804 -7371.70026005 4.5 -0.939692620831 -0.342020143203 -8.89857079776e-21
-7293.63983804 -7371.70026005 13.5 -0.939692620831 -0.342020143203 -8.89857079776e-21
-7293.63983804 -7371.70026005 22.5 -0.939692620831 -0.342020143203 -8.89857079776e-21
-7293.63983804 -7371.70026005 28.4999991455 -0.939692620831 -0.342020143203 -8.89857079776e-21
-7295.34993831 -7367.00179818 4.5 -0.939692620831 -0.342020143203 -8.89857079776e-21
-7295.34993831 -7367.00179818 13.5 -0.939692620831 -0.342020143203 -8.89857079776e-21
-7295.34993831 -7367.00179818 22.5 -0.939692620831 -0.342020143203 -8.89857079776e-21
-7295.34993831 -7367.00179818 28.4999991455 -0.939692620831 -0.342020143203 -8.89857079776e-21
-7298.32721142 -7367.56399127 25.499998291 0.342020142243 -0.93969262118 8.03761152036e-21
-7298.32721142 -7367.56399127 16.499998291 0.342020142243 -0.93969262118 8.03761152036e-21
-7298.32721142 -7367.56399127 7.499998291 0.342020142243 -0.93969262118 8.03761152036e-21
-7298.32721142 -7367.56399127 1.4999991455 0.342020142243 -0.93969262118 8.03761152036e-21
-7302.69819981 -7364.35545918 4.5 -0.939692620978 -0.342020142798 -0.0
-7302.69819981 -7364.35545918 13.5 -0.939692620978 -0.342020142798 -0.0
-7302.69819981 -7364.35545918 22.5 -0.939692620978 -0.342020142798 -0.0
-7302.69819981 -7364.35545918 28.4999991455 -0.939692620978 -0.342020142798 -0.0
-7304.75032055 -7358.71730377 4.5 -0.939692620978 -0.342020142798 -0.0
-7304.75032055 -7358.71730377 13.5 -0.939692620978 -0.342020142798 -0.0
-7304.75032055 -7358.71730377 22.5 -0.939692620978 -0.342020142798 -0.0
-7304.75032055 -7358.71730377 28.4999991455 -0.939692620978 -0.342020142798 -0.0
-7301.02875713 -7355.75585739 25.499998291 -0.342020142816 0.939692620971 0.0
-7301.02875713 -7355.75585739 16.499998291 -0.342020142816 0.939692620971 0.0
-7301.02875713 -7355.75585739 7.499998291 -0.342020142816 0.939692620971 0.0
-7301.02875713 -7355.75585739 1.4999991455 -0.342020142816 0.939692620971 0.0
-7295.39060755 -7353.70373877 25.499998291 -0.342020142816 0.939692620971 0.0
-7295.39060755 -7353.70373877 16.499998291 -0.342020142816 0.939692620971 0.0
-7295.39060755 -7353.70373877 7.499998291 -0.342020142816 0.939692620971 0.0
-7295.39060755 -7353.70373877 1.4999991455 -0.342020142816 0.939692620971 0.0
-7292.9421962 -7356.01576813 4.5 0.939692620985 0.342020142779 -4.88643327401e-22
-7292.9421962 -7356.01576813 13.5 0.939692620985 0.342020142779 -4.88643327401e-22
-7292.9421962 -7356.01576813 22.5 0.939692620985 0.342020142779 -4.88643327401e-22
-7292.9421962 -7356.01576813 28.4999991455 0.939692620985 0.342020142779 -4.88643327401e-22
-7286.76063332 -7356.9477579 25.499998291 -0.342020143181 0.939692620839 -0.0
-7286.76063332 -7356.9477579 16.499998291 -0.342020143181 0.939692620839 -0.0
-7286.76063332 -7356.9477579 7.499998291 -0.342020143181 0.939692620839 -0.0
-7286.76063332 -7356.9477579 1.4999991455 -0.342020143181 0.939692620839 -0.0
-7291.45910101 -7358.65786028 25.499998291 -0.342020143181 0.939692620839 -0.0
-7291.45910101 -7358.65786028 16.499998291 -0.342020143181 0.939692620839 -0.0
-7291.45910101 -7358.65786028 7.499998291 -0.342020143181 0.939692620839 -0.0
-7291.45910101 -7358.65786028 1.4999991455 -0.342020143181 0.939692620839 -0.0
-7283.56405468 -7352.60240377 4.5 -0.939692620449 -0.342020144251 0.0
-7283.56405468 -7352.60240377 13.5 -0.939692620449 -0.342020144251 0.0
-7283.56405468 -7352.60240377 22.5 -0.939692620449 -0.342020144251 0.0
-7283.56405468 -7352.60240377 28.4999991455 -0.939692620449 -0.342020144251 0.0
-7277.53643372 -7347.20535094 25.499998291 -0.342020143247 0.939692620814 -1.19984815523e-20
-7277.53643372 -7347.20535094 16.499998291 -0.342020143247 0.939692620814 -1.19984815523e-20
-7277.53643372 -7347.20535094 7.499998291 -0.342020143247 0.939692620814 -1.19984815523e-20
-7277.53643372 -7347.20535094 1.4999991455 -0.342020143247 0.939692620814 -1.19984815523e-20
-7283.17459495 -7349.2574738 25.499998291 -0.342020143247 0.939692620814 -1.19984815523e-20
-7283.17459495 -7349.2574738 16.499998291 -0.342020143247 0.939692620814 -1.19984815523e-20
-7283.17459495 -7349.2574738 7.499998291 -0.342020143247 0.939692620814 -1.19984815523e-20
-7283.17459495 -7349.2574738 1.4999991455 -0.342020143247 0.939692620814 -1.19984815523e-20
-7271.75590915 -7349.90085381 4.5 0.939692620978 0.342020142798 -0.0
-7271.75590915 -7349.90085381 13.5 0.939692620978 0.342020142798 -0.0
-7271.75590915 -7349.90085381 22.5 0.939692620978 0.342020142798 -0.0
-7271.75590915 -7349.90085381 28.4999991455 0.939692620978 0.342020142798 -0.0
-7269.70378841 -7355.53900922 4.5 0.939692620978 0.342020142798 -0.0
-7269.70378841 -7355.53900922 13.5 0.939692620978 0.342020142798 -0.0
-7269.70378841 -7355.53900922 22.5 0.939692620978 0.342020142798 -0.0
-7269.70378841 -7355.53900922 28.4999991455 0.939692620978 0.342020142798 -0.0
-7272.01581565 -7357.98742639 25.499998291 0.342020142779 -0.939692620985 9.22147188607e-22
-7272.01581565 -7357.98742639 16.499998291 0.342020142779 -0.939692620985 9.22147188607e-22
-7272.01581565 -7357.98742639 7.499998291 0.342020142779 -0.939692620985 9.22147188607e-22
-7272.01581565 -7357.98742639 1.4999991455 0.342020142779 -0.939692620985 9.22147188607e-22
-7273.2898289 -7363.22928748 4.5 0.939692620831 0.342020143203 -4.66458032397e-21
-7273.2898289 -7363.22928748 13.5 0.939692620831 0.342020143203 -4.66458032397e-21
-7273.2898289 -7363.22928748 22.5 0.939692620831 0.342020143203 -4.66458032397e-21
-7273.2898289 -7363.22928748 28.4999991455 0.939692620831 0.342020143203 -4.66458032397e-21
-7271.57972863 -7367.92774935 4.5 0.939692620831 0.342020143203 -4.66458032397e-21
-7271.57972863 -7367.92774935 13.5 0.939692620831 0.342020143203 -4.66458032397e-21
-7271.57972863 -7367.92774935 22.5 0.939692620831 0.342020143203 -4.66458032397e-21
-7271.57972863 -7367.92774935 28.4999991455 0.939692620831 0.342020143203 -4.66458032397e-21
-7268.60245553 -7367.36555626 25.499998291 -0.342020144251 0.939692620449 0.0
-7268.60245553 -7367.36555626 16.499998291 -0.342020144251 0.939692620449 0.0
-7268.60245553 -7367.36555626 7.499998291 -0.342020144251 0.939692620449 0.0
-7268.60245553 -7367.36555626 1.4999991455 -0.342020144251 0.939692620449 0.0
-7263.2054027 -7373.39317722 4.5 0.939692620814 0.342020143247 0.0
-7263.2054027 -7373.39317722 13.5 0.939692620814 0.342020143247 0.0
-7263.2054027 -7373.39317722 22.5 0.939692620814 0.342020143247 0.0
-7263.2054027 -7373.39317722 28.4999991455 0.939692620814 0.342020143247 0.0
-7265.25752556 -7367.75501599 4.5 0.939692620814 0.342020143247 0.0
-7265.25752556 -7367.75501599 13.5 0.939692620814 0.342020143247 0.0
-7265.25752556 -7367.75501599 22.5 0.939692620814 0.342020143247 0.0
-7265.25752556 -7367.75501599 28.4999991455 0.939692620814 0.342020143247 0.0
-7265.90090557 -7379.17370179 25.499998291 0.342020143515 -0.939692620717 0.0
-7265.90090557 -7379.17370179 16.499998291 0.342020143515 -0.939692620717 0.0
-7265.90090557 -7379.17370179 7.499998291 0.342020143515 -0.939692620717 0.0
-7265.90090557 -7379.17370179 1.4999991455 0.342020143515 -0.939692620717 0.0
-7271.5390668 -7381.22582466 25.499998291 0.342020143515 -0.939692620717 0.0
-7271.5390668 -7381.22582466 16.499998291 0.342020143515 -0.939692620717 0.0
-7271.5390668 -7381.22582466 7.499998291 0.342020143515 -0.939692620717 0.0
-7271.5390668 -7381.22582466 1.4999991455 0.342020143515 -0.939692620717 0.0
-7273.9874898 -7378.91379953 4.5 -0.93969262118 -0.342020142243 0.0
-7273.9874898 -7378.91379953 13.5 -0.93969262118 -0.342020142243 0.0
-7273.9874898 -7378.91379953 22.5 -0.93969262118 -0.342020142243 0.0
-7273.9874898 -7378.91379953 28.4999991455 -0.93969262118 -0.342020142243 0.0
-7279.22935089 -7377.63978628 25.499998291 0.342020144064 -0.939692620517 0.0
-7279.22935089 -7377.63978628 16.499998291 0.342020144064 -0.939692620517 0.0
-7279.22935089 -7377.63978628 7.499998291 0.342020144064 -0.939692620517 0.0
-7279.22935089 -7377.63978628 1.4999991455 0.342020144064 -0.939692620517 0.0
-7283.92781858 -7379.34988867 25.499998291 0.342020144064 -0.939692620517 0.0
-7283.92781858 -7379.34988867 16.499998291 0.342020144064 -0.939692620517 0.0
-7283.92781858 -7379.34988867 7.499998291 0.342020144064 -0.939692620517 0.0
-7283.92781858 -7379.34988867 1.4999991455 0.342020144064 -0.939692620517 0.0
-7283.36563132 -7382.3271639 4.5 0.939692620985 0.342020142779 -7.19892603407e-22
-7283.36563132 -7382.3271639 13.5 0.939692620985 0.342020142779 -7.19892603407e-22
-7283.36563132 -7382.3271639 22.5 0.939692620985 0.342020142779 -7.19892603407e-22
-7283.36563132 -7382.3271639 28.4999991455 0.939692620985 0.342020142779 -7.19892603407e-22
-7286.57416341 -7386.69815229 25.499998291 0.342020142816 -0.939692620971 2.36722616253e-20
-7286.57416341 -7386.69815229 16.499998291 0.342020142816 -0.939692620971 2.36722616253e-20
-7286.57416341 -7386.69815229 7.499998291 0.342020142816 -0.939692620971 2.36722616253e-20
-7286.57416341 -7386.69815229 1.4999991455 0.342020142816 -0.939692620971 2.36722616253e-20
-7292.21231299 -7388.75027091 25.499998291 0.342020142816 -0.939692620971 2.36722616253e-20
-7292.21231299 -7388.75027091 16.499998291 0.342020142816 -0.939692620971 2.36722616253e-20
-7292.21231299 -7388.75027091 7.499998291 0.342020142816 -0.939692620971 2.36722616253e-20
-7292.21231299 -7388.75027091 1.4999991455 0.342020142816 -0.939692620971 2.36722616253e-20
-7296.19981799 -7382.20961649 4.5 -0.939692620717 -0.342020143515 0.0
-7296.19981799 -7382.20961649 13.5 -0.939692620717 -0.342020143515 0.0
-7296.19981799 -7382.20961649 22.5 -0.939692620717 -0.342020143515 0.0
-7296.19981799 -7382.20961649 28.4999991455 -0.939692620717 -0.342020143515 0.0
-7294.14769513 -7387.84777772 4.5 -0.939692620717 -0.342020143515 0.0
-7294.14769513 -7387.84777772 13.5 -0.939692620717 -0.342020143515 0.0
-7294.14769513 -7387.84777772 22.5 -0.939692620717 -0.342020143515 0.0
-7294.14769513 -7387.84777772 28.4999991455 -0.939692620717 -0.342020143515 0.0
-7283.36560802 -7258.60245553 4.5 0.939692620449 -0.342020144251 -0.0
-7283.36560802 -7258.60245553 13.5 0.939692620449 -0.342020144251 -0.0
-7283.36560802 -7258.60245553 22.5 0.939692620449 -0.342020144251 -0.0
-7283.36560802 -7258.60245553 31.4999989746 0.939692620449 -0.342020144251 -0.0
-7280.16902938 -7262.94780966 31.4999979492 0.342020143203 0.939692620831 0.0
-7280.16902938 -7262.94780966 22.4999979492 0.342020143203 0.939692620831 0.0
-7280.16902938 -7262.94780966 13.4999979492 0.342020143203 0.939692620831 0.0
-7280.16902938 -7262.94780966 4.4999989746 0.342020143203 0.939692620831 0.0
-7275.47056752 -7264.65790992 31.4999979492 0.342020143203 0.939692620831 0.0
-7275.47056752 -7264.65790992 22.4999979492 0.342020143203 0.939692620831 0.0
-7275.47056752 -7264.65790992 13.4999979492 0.342020143203 0.939692620831 0.0
-7275.47056752 -7264.65790992 4.4999989746 0.342020143203 0.939692620831 0.0
-7273.98747815 -7262.01581565 4.5 -0.939692620985 0.342020142779 -1.27592359499e-21
-7273.98747815 -7262.01581565 13.5 -0.939692620985 0.342020142779 -1.27592359499e-21
-7273.98747815 -7262.01581565 22.5 -0.939692620985 0.342020142779 -1.27592359499e-21
-7273.98747815 -7262.01581565 31.4999989746 -0.939692620985 0.342020142779 -1.27592359499e-21
-7265.90090557 -7261.75590915 31.4999979492 0.342020142798 0.939692620978 -0.0
-7265.90090557 -7261.75590915 22.4999979492 0.342020142798 0.939692620978 -0.0
-7265.90090557 -7261.75590915 13.4999979492 0.342020142798 0.939692620978 -0.0
-7265.90090557 -7261.75590915 4.4999989746 0.342020142798 0.939692620978 -0.0
-7271.53906098 -7259.70378841 31.4999979492 0.342020142798 0.939692620978 -0.0
-7271.53906098 -7259.70378841 22.4999979492 0.342020142798 0.939692620978 -0.0
-7271.53906098 -7259.70378841 13.4999979492 0.342020142798 0.939692620978 -0.0
-7271.53906098 -7259.70378841 4.4999989746 0.342020142798 0.939692620978 -0.0
-7264.23146289 -7270.35551094 4.5 0.939692620978 -0.342020142798 -4.12330141596e-21
-7264.23146289 -7270.35551094 13.5 0.939692620978 -0.342020142798 -4.12330141596e-21
-7264.23146289 -7270.35551094 22.5 0.939692620978 -0.342020142798 -4.12330141596e-21
-7264.23146289 -7270.35551094 31.4999989746 0.939692620978 -0.342020142798 -4.12330141596e-21
-7262.17934215 -7264.71735553 4.5 0.939692620978 -0.342020142798 -4.12330141596e-21
-7262.17934215 -7264.71735553 13.5 0.939692620978 -0.342020142798 -4.12330141596e-21
-7262.17934215 -7264.71735553 22.5 0.939692620978 -0.342020142798 -4.12330141596e-21
-7262.17934215 -7264.71735553 31.4999989746 0.939692620978 -0.342020142798 -4.12330141596e-21
-7268.60245128 -7273.56404303 31.4999979492 -0.342020142243 -0.93969262118 -7.54865475237e-22
-7268.60245128 -7273.56404303 22.4999979492 -0.342020142243 -0.93969262118 -7.54865475237e-22
-7268.60245128 -7273.56404303 13.4999979492 -0.342020142243 -0.93969262118 -7.54865475237e-22
-7268.60245128 -7273.56404303 4.4999989746 -0.342020142243 -0.93969262118 -7.54865475237e-22
-7272.94780542 -7276.76062167 4.5 0.939692620831 -0.342020143203 -0.0
-7272.94780542 -7276.76062167 13.5 0.939692620831 -0.342020143203 -0.0
-7272.94780542 -7276.76062167 22.5 0.939692620831 -0.342020143203 -0.0
-7272.94780542 -7276.76062167 31.4999989746 0.939692620831 -0.342020143203 -0.0
-7274.65790568 -7281.45908353 4.5 0.939692620831 -0.342020143203 -0.0
-7274.65790568 -7281.45908353 13.5 0.939692620831 -0.342020143203 -0.0
-7274.65790568 -7281.45908353 22.5 0.939692620831 -0.342020143203 -0.0
-7274.65790568 -7281.45908353 31.4999989746 0.939692620831 -0.342020143203 -0.0
-7272.01581141 -7282.9421729 31.4999979492 0.342020142243 0.93969262118 3.36343735771e-21
-7272.01581141 -7282.9421729 22.4999979492 0.342020142243 0.93969262118 3.36343735771e-21
-7272.01581141 -7282.9421729 13.4999979492 0.342020142243 0.93969262118 3.36343735771e-21
-7272.01581141 -7282.9421729 4.4999989746 0.342020142243 0.93969262118 3.36343735771e-21
-7270.72984471 -7288.20966825 4.5 0.939692620717 -0.342020143515 1.19164970014e-21
-7270.72984471 -7288.20966825 13.5 0.939692620717 -0.342020143515 1.19164970014e-21
-7270.72984471 -7288.20966825 22.5 0.939692620717 -0.342020143515 1.19164970014e-21
-7270.72984471 -7288.20966825 31.4999989746 0.939692620717 -0.342020143515 1.19164970014e-21
-7272.78196757 -7293.84782948 4.5 0.939692620717 -0.342020143515 1.19164970014e-21
-7272.78196757 -7293.84782948 13.5 0.939692620717 -0.342020143515 1.19164970014e-21
-7272.78196757 -7293.84782948 22.5 0.939692620717 -0.342020143515 1.19164970014e-21
-7272.78196757 -7293.84782948 31.4999989746 0.939692620717 -0.342020143515 1.19164970014e-21
-7277.53643372 -7293.72426 31.4999979492 -0.342020142798 -0.939692620978 0.0
-7277.53643372 -7293.72426 22.4999979492 -0.342020142798 -0.939692620978 0.0
-7277.53643372 -7293.72426 13.4999979492 -0.342020142798 -0.939692620978 0.0
-7277.53643372 -7293.72426 4.4999989746 -0.342020142798 -0.939692620978 0.0
-7283.17458912 -7291.67213926 31.4999979492 -0.342020142798 -0.939692620978 0.0
-7283.17458912 -7291.67213926 22.4999979492 -0.342020142798 -0.939692620978 0.0
-7283.17458912 -7291.67213926 13.4999979492 -0.342020142798 -0.939692620978 0.0
-7283.17458912 -7291.67213926 4.4999989746 -0.342020142798 -0.939692620978 0.0
-7283.56404303 -7288.32721142 4.5 -0.93969262118 0.342020142243 -1.23689354068e-20
-7283.56404303 -7288.32721142 13.5 -0.93969262118 0.342020142243 -1.23689354068e-20
-7283.56404303 -7288.32721142 22.5 -0.93969262118 0.342020142243 -1.23689354068e-20
-7283.56404303 -7288.32721142 31.4999989746 -0.93969262118 0.342020142243 -1.23689354068e-20
-7286.76062167 -7283.98185728 31.4999979492 -0.342020143203 -0.939692620831 0.0
-7286.76062167 -7283.98185728 22.4999979492 -0.342020143203 -0.939692620831 0.0
-7286.76062167 -7283.98185728 13.4999979492 -0.342020143203 -0.939692620831 0.0
-7286.76062167 -7283.98185728 4.4999989746 -0.342020143203 -0.939692620831 0.0
-7291.45908353 -7282.27175702 31.4999979492 -0.342020143203 -0.939692620831 0.0
-7291.45908353 -7282.27175702 22.4999979492 -0.342020143203 -0.939692620831 0.0
-7291.45908353 -7282.27175702 13.4999979492 -0.342020143203 -0.939692620831 0.0
-7291.45908353 -7282.27175702 4.4999989746 -0.342020143203 -0.939692620831 0.0
-7292.9421729 -7284.91385129 4.5 0.93969262118 -0.342020142243 2.47378708136e-20
-7292.9421729 -7284.91385129 13.5 0.93969262118 -0.342020142243 2.47378708136e-20
-7292.9421729 -7284.91385129 22.5 0.93969262118 -0.342020142243 2.47378708136e-20
-7292.9421729 -7284.91385129 31.4999989746 0.93969262118 -0.342020142243 2.47378708136e-20
-7298.20966825 -7286.19981799 31.4999979492 -0.342020143515 -0.939692620717 0.0
-7298.20966825 -7286.19981799 22.4999979492 -0.342020143515 -0.939692620717 0.0
-7298.20966825 -7286.19981799 13.4999979492 -0.342020143515 -0.939692620717 0.0
-7298.20966825 -7286.19981799 4.4999989746 -0.342020143515 -0.939692620717 0.0
-7303.84782948 -7284.14769513 31.4999979492 -0.342020143515 -0.939692620717 0.0
-7303.84782948 -7284.14769513 22.4999979492 -0.342020143515 -0.939692620717 0.0
-7303.84782948 -7284.14769513 13.4999979492 -0.342020143515 -0.939692620717 0.0
-7303.84782948 -7284.14769513 4.4999989746 -0.342020143515 -0.939692620717 0.0
-7302.69819556 -7276.5741401 4.5 -0.939692620814 0.342020143247 -1.95275759392e-19
-7302.69819556 -7276.5741401 13.5 -0.939692620814 0.342020143247 -1.95275759392e-19
-7302.69819556 -7276.5741401 22.5 -0.939692620814 0.342020143247 -1.95275759392e-19
-7302.69819556 -7276.5741401 31.4999989746 -0.939692620814 0.342020143247 -1.95275759392e-19
-7304.75031843 -7282.21230134 4.5 -0.939692620814 0.342020143247 -1.95275759392e-19
-7304.75031843 -7282.21230134 13.5 -0.939692620814 0.342020143247 -1.95275759392e-19
-7304.75031843 -7282.21230134 22.5 -0.939692620814 0.342020143247 -1.95275759392e-19
-7304.75031843 -7282.21230134 31.4999989746 -0.939692620814 0.342020143247 -1.95275759392e-19
-7298.32720717 -7273.36560802 31.4999979492 0.342020144251 0.939692620449 -2.39105914275e-21
-7298.32720717 -7273.36560802 22.4999979492 0.342020144251 0.939692620449 -2.39105914275e-21
-7298.32720717 -7273.36560802 13.4999979492 0.342020144251 0.939692620449 -2.39105914275e-21
-7298.32720717 -7273.36560802 4.4999989746 0.342020144251 0.939692620449 -2.39105914275e-21
-7293.6398338 -7269.22933924 4.5 -0.939692620831 0.342020143203 -1.37091262103e-20
-7293.6398338 -7269.22933924 13.5 -0.939692620831 0.342020143203 -1.37091262103e-20
-7293.6398338 -7269.22933924 22.5 -0.939692620831 0.342020143203 -1.37091262103e-20
-7293.6398338 -7269.22933924 31.4999989746 -0.939692620831 0.342020143203 -1.37091262103e-20
-7295.34993407 -7273.92780111 4.5 -0.939692620831 0.342020143203 -1.37091262103e-20
-7295.34993407 -7273.92780111 13.5 -0.939692620831 0.342020143203 -1.37091262103e-20
-7295.34993407 -7273.92780111 22.5 -0.939692620831 0.342020143203 -1.37091262103e-20
-7295.34993407 -7273.92780111 31.4999989746 -0.939692620831 0.342020143203 -1.37091262103e-20
-7294.91384705 -7263.98747815 31.4999979492 -0.342020142779 -0.939692620985 7.54865476151e-22
-7294.91384705 -7263.98747815 22.4999979492 -0.342020142779 -0.939692620985 7.54865476151e-22
-7294.91384705 -7263.98747815 13.4999979492 -0.342020142779 -0.939692620985 7.54865476151e-22
-7294.91384705 -7263.98747815 4.4999989746 -0.342020142779 -0.939692620985 7.54865476151e-22
-7295.17375355 -7255.90090557 4.5 -0.939692620978 0.342020142798 -7.55710737093e-21
-7295.17375355 -7255.90090557 13.5 -0.939692620978 0.342020142798 -7.55710737093e-21
-7295.17375355 -7255.90090557 22.5 -0.939692620978 0.342020142798 -7.55710737093e-21
-7295.17375355 -7255.90090557 31.4999989746 -0.939692620978 0.342020142798 -7.55710737093e-21
-7297.22587429 -7261.53906098 4.5 -0.939692620978 0.342020142798 -7.55710737093e-21
-7297.22587429 -7261.53906098 13.5 -0.939692620978 0.342020142798 -7.55710737093e-21
-7297.22587429 -7261.53906098 22.5 -0.939692620978 0.342020142798 -7.55710737093e-21
-7297.22587429 -7261.53906098 31.4999989746 -0.939692620978 0.342020142798 -7.55710737093e-21
-7286.5741401 -7254.23146714 31.4999979492 0.342020143247 0.939692620814 5.34076382178e-20
-7286.5741401 -7254.23146714 22.4999979492 0.342020143247 0.939692620814 5.34076382178e-20
-7286.5741401 -7254.23146714 13.4999979492 0.342020143247 0.939692620814 5.34076382178e-20
-7286.5741401 -7254.23146714 4.4999989746 0.342020143247 0.939692620814 5.34076382178e-20
-7292.21230134 -7252.17934427 31.4999979492 0.342020143247 0.939692620814 5.34076382178e-20
-7292.21230134 -7252.17934427 22.4999979492 0.342020143247 0.939692620814 5.34076382178e-20
-7292.21230134 -7252.17934427 13.4999979492 0.342020143247 0.939692620814 5.34076382178e-20
-7292.21230134 -7252.17934427 4.4999989746 0.342020143247 0.939692620814 5.34076382178e-20
-7371.39690811 -7288.28836001 31.4999979492 0.642787610004 0.766044442853 -9.32329556621e-21
-7371.39690811 -7288.28836001 22.4999979492 0.642787610004 0.766044442853 -9.32329556621e-21
-7371.39690811 -7288.28836001 13.4999979492 0.642787610004 0.766044442853 -9.32329556621e-21
-7371.39690811 -7288.28836001 4.4999989746 0.642787610004 0.766044442853 -9.32329556621e-21
-7365.57752273 -7286.00470538 4.5 -0.766044443234 0.64278760955 0.0
-7365.57752273 -7286.00470538 13.5 -0.766044443234 0.64278760955 0.0
-7365.57752273 -7286.00470538 22.5 -0.766044443234 0.64278760955 0.0
-7365.57752273 -7286.00470538 31.4999989746 -0.766044443234 0.64278760955 0.0
-7368.79146391 -7289.83493133 4.5 -0.766044443234 0.64278760955 0.0
-7368.79146391 -7289.83493133 13.5 -0.766044443234 0.64278760955 0.0
-7368.79146391 -7289.83493133 22.5 -0.766044443234 0.64278760955 0.0
-7368.79146391 -7289.83493133 31.4999989746 -0.766044443234 0.64278760955 0.0
-7364.98188149 -7280.64322899 31.4999979492 -0.642787610824 -0.766044442164 -3.63110106132e-21
-7364.98188149 -7280.64322899 22.4999979492 -0.642787610824 -0.766044442164 -3.63110106132e-21
-7364.98188149 -7280.64322899 13.4999979492 -0.642787610824 -0.766044442164 -3.63110106132e-21
-7364.98188149 -7280.64322899 4.4999989746 -0.642787610824 -0.766044442164 -3.63110106132e-21
-7364.38870538 -7275.25357596 4.5 -0.76604444321 0.642787609578 8.04183275985e-20
-7364.38870538 -7275.25357596 13.5 -0.76604444321 0.642787609578 8.04183275985e-20
-7364.38870538 -7275.25357596 22.5 -0.76604444321 0.642787609578 8.04183275985e-20
-7364.38870538 -7275.25357596 31.4999989746 -0.76604444321 0.642787609578 8.04183275985e-20
-7360.53198393 -7270.65731431 4.5 -0.76604444321 0.642787609578 8.04183275985e-20
-7360.53198393 -7270.65731431 13.5 -0.76604444321 0.642787609578 8.04183275985e-20
-7360.53198393 -7270.65731431 22.5 -0.76604444321 0.642787609578 8.04183275985e-20
-7360.53198393 -7270.65731431 31.4999989746 -0.76604444321 0.642787609578 8.04183275985e-20
-7356.10651841 -7272.39956434 31.4999979492 0.642787609097 0.766044443614 0.0
-7356.10651841 -7272.39956434 22.4999979492 0.642787609097 0.766044443614 0.0
-7356.10651841 -7272.39956434 13.4999979492 0.642787609097 0.766044443614 0.0
-7356.10651841 -7272.39956434 4.4999989746 0.642787609097 0.766044443614 0.0
-7351.51025201 -7276.25628977 31.4999979492 0.642787609097 0.766044443614 0.0
-7351.51025201 -7276.25628977 22.4999979492 0.642787609097 0.766044443614 0.0
-7351.51025201 -7276.25628977 13.4999979492 0.642787609097 0.766044443614 0.0
-7351.51025201 -7276.25628977 4.4999989746 0.642787609097 0.766044443614 0.0
-7352.28831775 -7279.53269486 4.5 0.766044443673 -0.642787609026 3.93092093937e-20
-7352.28831775 -7279.53269486 13.5 0.766044443673 -0.642787609026 3.93092093937e-20
-7352.28831775 -7279.53269486 22.5 0.766044443673 -0.642787609026 3.93092093937e-20
-7352.28831775 -7279.53269486 31.4999989746 0.766044443673 -0.642787609026 3.93092093937e-20
-7350.77071503 -7284.70928636 31.4999979492 0.642787610127 0.766044442749 -3.41496628795e-21
-7350.77071503 -7284.70928636 22.4999979492 0.642787610127 0.766044442749 -3.41496628795e-21
-7350.77071503 -7284.70928636 13.4999979492 0.642787610127 0.766044442749 -3.41496628795e-21
-7350.77071503 -7284.70928636 4.4999989746 0.642787610127 0.766044442749 -3.41496628795e-21
-7346.94049383 -7287.92322356 31.4999979492 0.642787610127 0.766044442749 -3.41496628795e-21
-7346.94049383 -7287.92322356 22.4999979492 0.642787610127 0.766044442749 -3.41496628795e-21
-7346.94049383 -7287.92322356 13.4999979492 0.642787610127 0.766044442749 -3.41496628795e-21
-7346.94049383 -7287.92322356 4.4999989746 0.642787610127 0.766044442749 -3.41496628795e-21
-7344.64319623 -7285.94771351 4.5 -0.766044442853 0.642787610004 -2.52777252809e-20
-7344.64319623 -7285.94771351 13.5 -0.766044442853 0.642787610004 -2.52777252809e-20
-7344.64319623 -7285.94771351 22.5 -0.766044442853 0.642787610004 -2.52777252809e-20
-7344.64319623 -7285.94771351 31.4999989746 -0.766044442853 0.642787610004 -2.52777252809e-20
-7339.2535432 -7286.54088961 31.4999979492 0.642787609925 0.766044442919 -2.32275520221e-20
-7339.2535432 -7286.54088961 22.4999979492 0.642787609925 0.766044442919 -2.32275520221e-20
-7339.2535432 -7286.54088961 13.4999979492 0.642787609925 0.766044442919 -2.32275520221e-20
-7339.2535432 -7286.54088961 4.4999989746 0.642787609925 0.766044442919 -2.32275520221e-20
-7334.65727206 -7290.39761904 31.4999979492 0.642787609925 0.766044442919 -2.32275520221e-20
-7334.65727206 -7290.39761904 22.4999979492 0.642787609925 0.766044442919 -2.32275520221e-20
-7334.65727206 -7290.39761904 13.4999979492 0.642787609925 0.766044442919 -2.32275520221e-20
-7334.65727206 -7290.39761904 4.4999989746 0.642787609925 0.766044442919 -2.32275520221e-20
-7336.39951258 -7294.82309253 4.5 0.766044443555 -0.642787609167 -0.0
-7336.39951258 -7294.82309253 13.5 0.766044443555 -0.642787609167 -0.0
-7336.39951258 -7294.82309253 22.5 0.766044443555 -0.642787609167 -0.0
-7336.39951258 -7294.82309253 31.4999989746 0.766044443555 -0.642787609167 -0.0
-7340.25623403 -7299.41935418 4.5 0.766044443555 -0.642787609167 -0.0
-7340.25623403 -7299.41935418 13.5 0.766044443555 -0.642787609167 -0.0
-7340.25623403 -7299.41935418 22.5 0.766044443555 -0.642787609167 -0.0
-7340.25623403 -7299.41935418 31.4999989746 0.766044443555 -0.642787609167 -0.0
-7343.53263513 -7298.64128369 31.4999979492 -0.642787609026 -0.766044443673 0.0
-7343.53263513 -7298.64128369 22.4999979492 -0.642787609026 -0.766044443673 0.0
-7343.53263513 -7298.64128369 13.4999979492 -0.642787609026 -0.766044443673 0.0
-7343.53263513 -7298.64128369 4.4999989746 -0.642787609026 -0.766044443673 0.0
-7348.70922663 -7300.15888641 4.5 0.766044442821 -0.642787610042 1.69844739421e-20
-7348.70922663 -7300.15888641 13.5 0.766044442821 -0.642787610042 1.69844739421e-20
-7348.70922663 -7300.15888641 22.5 0.766044442821 -0.642787610042 1.69844739421e-20
-7348.70922663 -7300.15888641 31.4999989746 0.766044442821 -0.642787610042 1.69844739421e-20
-7351.92316782 -7303.98911236 4.5 0.766044442821 -0.642787610042 1.69844739421e-20
-7351.92316782 -7303.98911236 13.5 0.766044442821 -0.642787610042 1.69844739421e-20
-7351.92316782 -7303.98911236 22.5 0.766044442821 -0.642787610042 1.69844739421e-20
-7351.92316782 -7303.98911236 31.4999989746 0.766044442821 -0.642787610042 1.69844739421e-20
-7349.94766175 -7306.28641471 31.4999979492 0.642787610004 0.766044442853 -4.71916440701e-21
-7349.94766175 -7306.28641471 22.4999979492 0.642787610004 0.766044442853 -4.71916440701e-21
-7349.94766175 -7306.28641471 13.4999979492 0.642787610004 0.766044442853 -4.71916440701e-21
-7349.94766175 -7306.28641471 4.4999989746 0.642787610004 0.766044442853 -4.71916440701e-21
-7352.46920821 -7313.97421004 4.5 0.766044442919 -0.642787609925 -2.12911276313e-16
-7352.46920821 -7313.97421004 13.5 0.766044442919 -0.642787609925 -2.12911276313e-16
-7352.46920821 -7313.97421004 22.5 0.766044442919 -0.642787609925 -2.12911276313e-16
-7352.46920821 -7313.97421004 31.4999989746 0.766044442919 -0.642787609925 -2.12911276313e-16
-7348.61247879 -7309.3779389 4.5 0.766044442919 -0.642787609925 -2.12911276313e-16
-7348.61247879 -7309.3779389 13.5 0.766044442919 -0.642787609925 -2.12911276313e-16
